ply
format ascii 1.0
element vertex 258
property float x
property float y
property float z
property uchar red
property uchar green
property uchar blue
end_header
0.13833 0.530279 3.15292 0 255 0
-0.120256 0.617685 3.13307 0 255 0
-0.0772935 0.612703 3.09714 0 255 0
-0.0980187 0.656623 3.20928 0 255 0
0.262909 0.409502 3.04576 0 255 0
1.29292 -0.394977 3.83319 0 255 0
0.0867921 0.589662 3.24041 0 255 0
0.11908 0.641926 3.13075 0 255 0
-0.531163 0.754524 3.6521 0 255 0
0.294348 -0.234393 6.41921 20 15 17
0.37938 -0.044492 5.53611 25 24 29
0.952433 -0.421529 6.30287 26 20 20
0.524565 0.292596 4.26602 131 146 150
0.514579 0.382442 3.9703 126 123 106
0.546295 0.318813 4.01705 26 24 17
0.556488 0.319485 4.00586 36 33 34
0.559745 0.322516 4.00231 30 26 22
0.572393 0.525706 3.88959 144 144 130
0.576453 0.341569 3.96034 216 216 214
0.587293 0.406321 3.89837 187 188 176
0.634887 0.260111 4.01582 51 56 64
0.638398 0.257389 4.01499 68 69 68
0.593241 0.369896 3.90465 110 103 92
0.581829 0.355662 3.88415 6 6 6
0.602379 0.367741 3.9021 28 28 31
0.600582 0.409214 3.88432 194 192 186
0.600687 0.322767 3.91177 98 98 96
0.594018 0.353395 3.89017 16 16 15
0.93056 -0.694835 4.73261 91 86 96
0.593132 0.35279 3.87994 142 141 140
1.23114 -1.11868 5.267 86 86 89
0.612427 0.330212 3.89591 106 105 108
0.691601 0.304347 3.91721 40 34 30
0.691601 0.304347 3.91721 40 34 30
-0.114026 0.418624 3.921 66 40 35
-0.107592 0.408153 3.91261 168 160 151
-0.109799 0.394032 3.91147 211 198 190
-0.107207 0.39282 3.91199 178 168 176
-0.0911675 0.443537 3.92409 162 152 176
-0.0804192 0.456828 3.9394 137 99 64
-0.0796131 0.456764 3.93943 187 159 120
-0.0781433 0.45633 3.93836 192 162 132
-0.0126273 0.698059 3.99814 28 28 22
-0.0805277 0.454741 3.94983 210 187 152
-0.0767808 0.442477 3.93464 13 3 1
-0.0697907 0.501099 3.98921 64 40 21
-0.0140497 0.680819 4.00998 56 53 50
-0.0701127 0.483748 3.98676 167 152 148
-0.061227 0.482159 3.96665 172 158 152
0.00187156 0.692147 3.99537 94 90 85
0.00187156 0.692147 3.99537 94 90 85
-0.0578261 0.485149 3.96629 12 5 12
-0.0631428 0.486146 3.98615 12 5 12
-0.00235464 0.682142 4.00154 12 10 5
0.0319944 0.72472 3.91761 68 66 64
-0.0633013 0.480347 3.98835 220 136 0
0.0104487 0.691601 3.99197 130 124 119
0.0143708 0.684495 3.99431 36 30 24
-0.0398327 0.505704 3.98958 171 160 158
-0.0380802 0.492788 3.98921 213 199 194
-0.0235171 0.54952 4.01902 25 19 58
-0.0235171 0.54952 4.01902 25 19 58
-0.0344184 0.491521 3.98608 68 14 26
-0.0132867 0.585618 4.04636 172 157 150
-0.0461318 0.428408 3.95121 24 13 12
0.0260591 0.673115 3.99691 30 24 20
0.0273662 0.675751 3.99647 126 124 116
0.0273662 0.675751 3.99647 126 124 116
-0.0554841 0.374547 3.92001 128 117 139
-0.0428022 0.432636 3.95652 124 22 18
-0.0104274 0.580521 4.04762 26 13 12
-0.0279799 0.495639 3.99508 90 150 72
-0.0408579 0.431627 3.95325 126 20 24
-0.0390987 0.46607 4.00526 159 106 66
-0.0405777 0.461483 4.00507 214 193 182
-0.0541692 0.369277 3.92069 216 207 209
-0.0400446 0.42995 3.95294 210 150 130
-0.0256858 0.492207 3.99804 72 208 84
-0.0102325 0.564127 4.04251 172 148 150
-0.0438877 0.379318 3.92371 54 32 53
0.0434537 0.685131 3.98889 16 12 9
-0.0433064 0.378288 3.92343 49 34 46
0.0442522 0.684653 3.98902 124 116 116
-0.0416927 0.379873 3.92502 200 192 208
0.000645046 0.579107 4.05257 94 64 61
-0.0413782 0.380671 3.92554 140 126 150
-0.0413782 0.380671 3.92554 140 126 150
0.000983286 0.576711 4.04871 158 138 135
-0.000104292 0.56945 4.04239 100 77 74
0.000599984 0.572837 4.04498 130 111 109
0.0448616 0.680303 3.99132 10 8 4
0.00089954 0.569948 4.04324 188 176 175
0.0459256 0.680315 3.99144 128 127 120
0.046191 0.67925 3.99193 22 18 15
-0.0257359 0.433381 3.96793 108 102 140
-0.0344619 0.382852 3.93288 140 130 156
-0.0372643 0.3745 3.93557 61 38 86
-0.0225541 0.435907 3.97911 52 22 96
0.0503208 0.669057 3.99958 163 160 157
-0.0154834 0.442267 3.96327 74 22 94
0.0391793 0.64871 4.03058 132 128 123
0.0391793 0.64871 4.03058 132 128 123
0.0496108 0.656447 4.00475 103 102 98
-0.0258588 0.390929 3.95008 135 120 188
-0.0258588 0.390929 3.95008 135 120 188
0.0535527 0.656487 4.06838 24 22 20
0.046555 0.667601 4.11568 68 66 62
0.0560617 0.655349 4.0701 137 134 132
0.0589758 0.650843 4.01125 84 86 80
0.0753358 0.664707 3.97936 136 134 130
0.071685 0.671405 4.00203 22 20 16
0.0626454 0.668419 4.06395 122 120 116
0.0665993 0.644093 4.02307 52 51 48
0.0918675 0.642435 3.90042 106 104 102
0.0132613 0.538388 4.34554 20 12 10
0.0805103 0.643513 4.02762 31 30 27
0.0787628 0.63693 4.03499 95 95 91
0.0832137 0.642456 4.03033 49 48 45
0.0860255 0.639783 4.0352 144 140 139
0.0863528 0.64029 4.03414 22 19 16
0.0871289 0.6399 4.03653 22 20 18
0.0896312 0.64537 4.02956 26 24 20
0.0918652 0.640964 4.03752 100 97 94
0.0909387 0.624656 4.06784 74 72 74
0.0974351 0.630659 4.05809 52 50 50
0.106211 0.568892 4.20047 72 70 70
0.120726 0.559408 4.20956 72 63 64
0.176147 0.68557 3.88248 74 72 70
0.176147 0.68557 3.88248 74 72 70
0.158021 0.50149 3.97291 146 0 0
0.165913 0.380448 4.45636 127 132 138
0.175817 0.471079 4.02451 223 253 71
0.178633 0.3766 4.45337 233 199 40
0.181065 0.469043 4.02683 219 249 64
0.148442 0.1994 4.68097 112 96 82
0.264509 0.613035 3.96237 113 240 21
0.252619 0.577502 3.94704 0 76 0
0.237346 0.204289 4.63957 87 74 62
0.254046 0.57197 3.94332 87 222 4
0.275584 0.686102 3.7997 145 154 114
0.275584 0.686102 3.7997 145 154 114
0.304825 0.595196 3.97701 3 12 0
0.308898 0.592771 3.97874 74 153 7
0.282049 0.523682 3.93909 124 254 26
0.296704 0.560769 3.95862 122 252 28
0.179953 0.0295485 4.02914 32 27 18
0.180445 0.0285566 4.02869 174 167 159
0.180445 0.0285566 4.02869 174 167 159
0.188061 0.0286642 4.02728 47 40 32
0.188061 0.0286642 4.02728 47 40 32
0.187074 0.0237759 4.02667 177 168 158
0.187842 0.0223701 4.02652 26 16 16
0.339864 0.577085 3.98768 166 187 113
0.327259 0.543964 3.97003 182 250 78
0.340506 0.575832 3.98518 38 30 6
0.197526 0.01459 4.02286 170 162 152
0.197526 0.01459 4.02286 170 162 152
0.201317 0.0231247 4.02633 176 168 156
0.201317 0.0231247 4.02633 176 168 156
0.331319 0.663366 3.80595 72 70 68
0.204986 0.0175441 4.0236 20 18 20
0.204986 0.0175441 4.0236 20 18 20
0.207183 0.0224684 4.02549 183 176 165
0.545043 0.289951 4.12066 137 126 100
0.565226 0.308907 4.06083 220 220 214
0.575607 0.34117 4.00969 88 90 77
0.611549 0.407027 3.90741 151 152 144
0.615025 0.438186 3.85377 116 116 110
0.652509 0.321529 3.93564 218 218 216
0.524199 0.471841 3.95272 208 208 196
0.545005 0.514949 3.92372 216 215 201
0.544367 0.47828 3.91947 212 212 196
0.551271 0.487577 3.90664 204 206 194
0.56099 0.516657 3.89345 210 210 196
0.561247 0.488939 3.88748 205 206 196
0.0311334 0.440293 3.82697 182 178 160
0.044342 0.428993 3.80964 23 24 26
0.0518704 0.434041 3.82182 185 182 168
0.188003 0.438026 3.91623 63 56 28
0.178427 0.431248 3.89683 118 99 46
0.172689 0.42575 3.87512 210 208 196
0.196112 0.427718 3.87511 50 59 62
0.204455 0.434321 3.88998 22 29 39
0.23623 0.427689 3.84449 24 36 42
0.237942 0.419107 3.82772 117 130 138
0.260912 0.423547 3.79704 28 39 46
0.59628 0.503141 4.27776 181 161 144
0.561756 0.456838 4.19259 194 186 170
0.594019 0.479714 4.11774 205 202 192
0.407034 0.332212 3.87231 63 68 71
0.531062 0.497841 3.95727 202 202 192
0.568672 0.450822 3.98744 194 194 183
0.534882 0.473493 3.92737 201 200 194
0.580585 0.464744 3.98325 201 200 194
0.538084 0.461114 3.92911 208 206 201
0.540284 0.478436 3.92733 206 206 197
0.545568 0.474267 3.91473 204 203 192
0.545454 0.455086 3.91273 212 213 204
0.522391 0.306565 3.90572 70 74 72
0.522391 0.306565 3.90572 70 74 72
0.62196 0.489425 3.97617 200 202 192
0.596582 0.469848 3.94483 207 209 198
0.454995 0.364647 3.79346 93 93 81
0.572421 0.504228 3.85792 201 202 193
0.568713 0.47189 3.84049 210 210 203
0.673197 0.467507 3.93765 204 207 198
0.48059 0.39541 3.72911 26 30 20
0.577773 0.503102 3.80834 117 117 91
0.583063 0.458265 3.81112 167 172 166
0.587643 0.509349 3.796 204 204 197
0.571541 0.539193 3.76198 181 183 172
0.570198 0.456912 4.0833 206 206 195
-0.0477408 0.658153 3.64153 74 72 70
-0.0477408 0.658153 3.64153 74 72 70
0.535342 0.477895 3.92806 39 30 26
0.535149 0.479401 3.92819 39 30 26
0.542379 0.481858 3.91962 222 218 210
1.08798 0.197416 4.21869 175 124 56
1.09888 0.117041 4.44563 146 146 138
0.123939 0.590832 3.46055 85 156 40
0.167179 0.546509 3.41603 110 108 100
0.501714 0.545493 4.01723 72 70 66
0.525614 0.545197 4.0074 72 70 68
0.730392 0.518313 4.27767 90 86 80
0.565767 0.543629 4.01628 87 84 80
0.626577 0.540083 4.03939 74 72 67
0.85943 0.512551 4.3147 86 86 80
0.786392 0.530558 4.12016 86 85 79
0.669589 0.543715 3.98591 109 107 101
0.846684 0.525241 4.15515 91 90 85
0.454261 0.49482 4.02986 210 203 188
0.464688 0.466976 4.00873 206 204 192
0.496025 0.451465 3.99576 119 106 86
0.54637 0.500709 3.91716 196 198 186
0.562243 0.518342 3.8894 209 209 196
0.563336 0.519765 3.88218 215 216 203
0.565253 0.531127 3.88094 142 142 128
0.561743 0.475924 3.87298 190 190 178
0.572935 0.494431 3.84591 204 206 195
0.63159 0.476602 3.97189 210 212 202
0.16671 0.626622 3.28151 42 40 42
0.0982286 0.648019 3.35021 164 157 150
0.0982286 0.648019 3.35021 164 157 150
0.535059 0.498246 3.94041 194 190 174
0.545083 0.518577 3.93301 222 219 206
0.539214 0.48814 3.93401 107 104 93
0.539143 0.4816 3.9334 215 213 204
0.547385 0.502525 3.92721 211 210 198
0.536827 0.464306 3.93427 216 212 207
0.54824 0.481771 3.92256 212 209 201
0.54824 0.481771 3.92256 212 209 201
0.553333 0.491203 3.9172 216 214 204
0.566235 0.520011 3.90925 220 218 205
1.02144 0.186359 4.23192 108 82 116
0.313861 0.922957 6.66819 68 64 62
0.313861 0.922957 6.66819 68 64 62
0.0392122 0.53011 3.48691 177 174 205
0.210668 0.566837 4.11293 86 106 10
