ply
format ascii 1.0
element vertex 597
property float x
property float y
property float z
property uchar red
property uchar green
property uchar blue
end_header
0.258558 -0.0698273 1.18411 0 255 0
0.28835 0.0166233 1.14593 0 255 0
0.427265 0.0155425 1.12407 0 255 0
0.557492 0.00784836 1.10604 0 255 0
0.713676 0.00377903 1.11042 0 255 0
0.876286 0.00193971 1.12966 0 255 0
1.02116 -0.00340405 1.16986 0 255 0
1.13614 -0.0238931 1.23001 0 255 0
1.26446 -0.0332109 1.32069 0 255 0
1.30088 -0.0437736 1.35236 0 255 0
1.25275 0.0568653 1.32991 0 255 0
1.14303 0.0917357 1.30727 0 255 0
0.993244 0.0885144 1.23265 0 255 0
0.858828 0.0868103 1.1529 0 255 0
0.648965 0.106502 1.07023 0 255 0
-0.0766137 -0.43484 2.35563 158 148 106
-0.0583818 -0.427714 2.3617 160 160 114
0.0725784 -0.541535 2.76919 168 169 114
-0.0242913 -0.399217 2.37129 142 141 100
0.156505 -0.477694 2.69138 174 172 138
0.174814 -0.458744 2.67915 172 173 133
-0.00450162 -0.383645 2.38131 160 160 113
0.193698 -0.438174 2.66725 154 157 125
0.00606095 -0.352892 2.36905 114 110 86
0.212836 -0.415573 2.6526 160 164 122
0.0195808 -0.349292 2.38902 147 142 126
0.0125397 -0.34324 2.37633 150 144 117
0.205361 -0.39824 2.63163 148 153 118
0.846551 -0.353062 2.4649 140 139 100
0.236558 -0.388838 2.64263 172 174 140
0.0359825 -0.328489 2.37775 133 134 109
0.835304 -0.339034 2.4786 148 144 110
0.816589 -0.335308 2.47877 130 128 87
0.0493286 -0.317524 2.3863 127 127 104
0.261435 -0.357761 2.62811 160 164 124
0.0813954 -0.318363 2.42834 160 158 119
0.23823 -0.354175 2.61958 146 152 118
0.244037 -0.341845 2.59921 148 156 120
0.105211 -0.29927 2.437 154 153 111
0.285729 -0.327307 2.61353 151 158 115
0.0809594 -0.289922 2.39916 140 138 116
0.0642051 -0.287676 2.40479 126 122 88
0.0970474 -0.284698 2.41992 140 140 117
0.128839 -0.280373 2.45115 161 160 120
0.316644 -0.293667 2.5698 182 188 147
0.114934 -0.259262 2.41339 164 161 140
0.153735 -0.258185 2.46301 179 178 143
0.14473 -0.245267 2.43359 140 140 121
0.178909 -0.236901 2.47886 162 162 128
0.309234 -0.235448 2.55673 174 182 143
0.297372 -0.234092 2.55214 142 153 110
0.168367 -0.22352 2.44199 138 138 117
0.279201 -0.233599 2.5554 140 142 98
0.202754 -0.21573 2.49119 164 164 130
0.323844 -0.215166 2.54497 182 186 149
0.460286 -0.20655 2.52382 178 178 140
0.190399 -0.202763 2.45705 136 134 112
0.209242 -0.20447 2.51017 180 178 152
0.465142 -0.203266 2.57181 122 124 88
0.174504 -0.190667 2.4194 144 142 118
0.224117 -0.197276 2.50676 179 180 142
0.201911 -0.191641 2.4638 138 138 116
0.362929 -0.198833 2.57689 151 154 112
0.221594 -0.171805 2.47475 136 135 114
0.193925 -0.16765 2.43438 170 168 146
0.230422 -0.164101 2.4768 137 136 114
0.404571 -0.172481 2.57308 182 182 142
0.317014 -0.165356 2.52789 130 132 88
0.468581 -0.160077 2.55593 142 150 110
0.267759 -0.160843 2.52115 168 168 128
0.381405 -0.159908 2.55037 180 186 142
0.710117 -0.16076 2.64733 199 193 151
0.250474 -0.145585 2.48995 147 146 123
0.216463 -0.142852 2.44075 141 142 118
0.291626 -0.139669 2.52748 137 138 100
0.270209 -0.139319 2.50152 141 140 112
0.259246 -0.138173 2.49083 136 136 110
0.274675 -0.125037 2.49759 151 152 122
0.323282 -0.117272 2.54287 139 142 100
0.287974 -0.11513 2.50595 139 139 108
0.659468 -0.109769 2.66912 178 182 148
0.0205854 -0.115894 2.57999 124 120 78
0.29837 -0.105626 2.51098 152 152 120
0.345464 -0.0980486 2.51319 203 206 160
0.62691 -0.0966205 2.69986 176 173 135
0.314249 -0.0930477 2.51577 126 130 99
0.107945 -0.0959517 2.55503 141 142 108
0.185734 -0.0874107 2.58956 122 124 84
0.678177 -0.0747897 2.61074 143 129 96
0.130301 -0.0843485 2.56293 122 110 82
0.602773 -0.075746 2.68739 156 150 114
0.339077 -0.0724262 2.45123 127 126 84
0.1443 -0.0800375 2.54712 81 74 48
0.211016 -0.0725976 2.60073 141 144 104
0.171579 -0.0726415 2.54782 114 114 90
0.41316 -0.0574198 2.39081 162 165 132
0.44829 -0.0542588 2.44552 129 131 118
0.192093 -0.0586739 2.55961 120 119 94
0.295436 -0.0454508 2.76879 92 67 46
0.136622 -0.0451345 2.50664 224 204 162
0.317631 -0.0388011 2.71145 72 58 40
0.148762 -0.0383976 2.51622 180 132 104
0.357841 -0.0408321 2.36497 154 155 114
0.183387 -0.0291255 2.72861 182 166 126
0.160342 -0.0368616 2.50348 173 139 112
0.389634 -0.0383536 2.37549 148 153 106
0.172031 -0.0238375 2.69008 196 174 141
0.534612 -0.0195278 2.6747 110 92 68
0.138911 -0.0227754 2.49406 209 194 152
0.156549 -0.0140812 2.71806 110 72 45
0.59438 -0.0129946 2.64843 93 82 54
0.639947 -0.00398252 2.68922 191 186 150
0.509881 0.00210164 2.67271 106 93 74
0.669549 -5.03598e-05 2.62282 184 176 140
0.160207 -0.0109822 2.48933 179 128 95
0.390619 -0.0100989 2.32106 140 150 106
0.618626 0.014758 2.68514 122 92 66
0.361284 0.000972285 2.31404 136 140 104
0.644632 0.0180992 2.54862 183 168 144
0.575765 0.045294 2.68141 52 27 18
0.635133 0.0481758 2.57391 108 79 58
0.619891 0.058729 2.55795 104 72 44
0.634849 0.0633391 2.55512 194 156 138
0.61047 0.0667618 2.56007 136 98 82
0.622218 0.0755694 2.53866 138 98 77
0.556202 0.0700327 2.48029 144 136 118
0.647863 0.0866324 2.55322 216 173 156
0.657315 0.0936103 2.54136 211 186 170
0.626426 0.0938493 2.49082 215 186 172
0.560921 0.0912874 2.44099 92 96 72
0.494378 0.094243 2.46449 56 54 41
0.613184 0.102729 2.42214 160 150 134
0.513873 0.100025 2.4523 72 62 44
0.579883 0.102128 2.41729 102 106 79
0.595112 0.112839 2.399 96 98 71
0.442603 0.113014 2.37919 115 82 74
0.241057 0.124215 2.42746 198 156 133
0.327939 0.125854 2.42147 144 104 84
0.53925 0.137795 2.42648 192 159 148
0.196544 0.176233 2.60443 96 61 40
0.630422 0.141472 2.35822 103 106 80
0.66377 0.153799 2.3369 139 136 104
0.640841 0.156123 2.34117 110 108 88
0.511718 0.179032 2.45676 94 56 52
0.473386 0.173905 2.43855 94 62 59
0.407332 0.132196 2.17945 164 152 137
0.451927 0.174887 2.42287 74 45 41
0.6359 0.1704 2.33645 135 130 117
0.479304 0.20303 2.46855 99 60 57
0.654472 0.191211 2.3184 140 136 123
0.513166 0.303754 2.54575 114 74 74
0.558967 0.338386 2.61526 167 128 120
0.676543 0.268545 2.36131 134 96 74
0.383727 0.206472 2.11707 162 161 151
0.888537 -0.385852 2.4113 145 149 116
0.866109 -0.345158 2.44375 164 166 132
0.133894 -0.256575 2.43017 108 108 88
0.693383 -0.243018 2.46582 92 92 75
0.471655 -0.232435 2.53645 159 161 122
-0.523159 -0.255381 3.0573 184 179 122
0.416452 -0.0706493 2.43096 116 119 78
0.229623 -0.074467 2.94698 116 116 77
0.286815 -0.0734071 2.49192 94 93 66
0.15714 -0.0622782 2.53166 98 80 58
0.559011 -0.0374209 2.66773 120 110 71
0.279313 -0.0366989 2.51372 118 104 78
0.232201 -0.00970771 2.70345 58 54 37
0.386405 -0.0239148 2.33897 126 132 88
0.567838 0.0122363 2.61763 72 63 48
0.63188 0.0287795 2.61387 113 86 59
0.176273 0.0111838 2.45995 137 94 68
0.369424 0.0343018 2.27519 98 100 67
0.320642 0.0752071 2.62388 32 26 21
0.601047 0.0820858 2.49014 140 114 100
0.547036 0.0830529 2.45474 78 80 58
0.617316 0.0940325 2.51437 166 148 136
0.473373 0.0895754 2.46933 40 40 31
0.595145 0.0921626 2.47215 122 101 78
0.573203 0.100794 2.43421 70 76 50
0.601789 0.10022 2.42881 102 88 65
0.55089 0.106178 2.45093 60 60 40
0.555914 0.117527 2.40857 130 120 105
0.338334 0.119375 2.42639 79 40 32
0.578379 0.133178 2.45189 140 126 115
0.62022 0.132099 2.35546 66 73 48
0.322395 0.142675 2.44828 129 84 57
0.540741 0.152134 2.44354 108 75 72
0.585624 0.220118 2.58264 84 52 48
0.678141 0.174733 2.32567 114 110 88
0.205022 0.240898 2.66533 158 134 119
0.448856 0.204631 2.44426 95 71 64
0.363542 0.197472 2.10696 111 94 67
0.464523 -0.422437 2.71368 104 108 64
0.336234 0.0059804 2.61489 96 92 74
0.0900388 -0.273623 2.4393 108 108 84
0.718969 -0.261291 2.45998 116 119 100
0.233573 -0.0596913 2.59963 122 124 86
0.281879 0.0842266 2.49425 62 34 24
0.413028 -0.200477 2.49998 132 133 86
0.49157 -0.0555367 2.55635 119 109 96
0.410534 0.0207836 2.28805 106 116 92
0.536489 0.11468 2.43167 60 50 36
0.499705 -0.0764473 2.53265 100 103 92
0.364906 0.137938 2.64516 68 41 36
0.343231 0.356999 2.67904 104 52 40
0.437614 0.38251 2.76199 114 84 50
0.516447 -0.327118 2.57979 153 160 113
0.659455 -0.257902 3.02099 132 134 107
0.475955 -0.193696 2.62084 120 128 86
0.00941009 -0.237697 3.21028 191 194 144
0.00261378 -0.117113 2.56636 116 108 62
0.256458 -0.100184 2.46755 126 124 96
0.478509 -0.0726903 2.53164 103 106 93
0.306485 -0.0521344 2.47523 132 129 99
0.139754 -0.0363588 2.48963 167 140 98
0.182312 -0.00831263 2.68042 116 82 50
0.220148 0.0565217 2.48202 120 111 96
0.296043 0.0601705 2.5983 52 39 26
0.275808 0.0621509 2.57308 52 38 28
0.214165 0.0804645 2.48581 141 112 103
0.179747 0.0735812 2.14431 106 112 94
0.316257 0.0958457 2.42032 66 35 24
0.455678 0.113141 2.36643 142 106 96
0.313707 0.138707 2.58029 102 58 37
0.626065 0.116407 2.3613 97 98 70
0.28602 0.236771 2.60014 108 60 44
0.273744 0.244584 2.57462 68 32 18
0.260657 0.303098 2.64248 128 92 81
0.395158 0.209701 2.12617 55 55 28
0.43832 0.366675 2.56102 132 98 90
0.377678 0.349778 2.46658 92 76 51
0.350207 0.270537 2.10306 84 76 50
0.436427 0.443006 2.61105 149 113 106
0.441532 0.454673 2.61026 172 152 154
0.143471 -0.0227938 2.47506 182 161 115
0.341623 0.36564 2.66101 83 32 21
0.222498 0.0496693 2.4384 106 110 82
0.276235 0.199421 2.58626 88 41 31
0.57765 0.0800488 2.44767 107 100 80
0.234828 0.220616 2.59885 93 56 35
0.154404 -0.443189 2.66168 132 131 90
0.820289 -0.311332 2.46227 147 148 112
0.756242 -0.155217 1.95045 100 107 60
0.428922 -0.222304 2.4259 116 124 72
0.672699 -0.223488 2.46628 93 100 81
0.44701 -0.0815084 2.4151 107 108 80
0.553207 -0.0859757 2.76281 110 116 80
0.43024 -0.00908786 2.57659 102 106 99
0.119681 -0.00650479 2.7841 144 128 84
0.224512 -0.00446786 2.56526 110 98 67
0.160263 0.00327737 2.45863 165 135 94
0.229996 0.00213171 2.56197 46 37 12
0.441545 0.0082959 2.63377 96 92 85
0.429625 0.0115132 2.57832 116 118 105
0.365557 0.0219775 2.28816 83 84 58
0.653314 0.0426359 2.55667 182 142 134
0.294967 0.079081 2.59707 20 14 8
0.18147 0.0761248 2.23303 89 88 72
0.657234 0.112036 2.61058 171 157 144
0.534037 0.108048 2.43017 40 36 24
0.413991 0.119281 2.4752 68 33 24
0.366454 0.111348 2.21264 116 98 68
0.591868 0.167303 2.51399 72 42 36
0.431999 0.162965 2.40003 130 84 66
0.414685 0.17731 2.43197 60 20 12
0.407227 0.156226 2.17843 83 89 69
0.590551 0.208298 2.56841 115 88 84
0.444836 0.253854 2.47927 89 58 52
0.420907 0.261375 2.47956 80 33 19
0.410215 0.216855 2.14037 82 60 45
0.709011 0.261278 2.32447 80 49 30
0.475848 0.310151 2.5208 92 49 46
0.0944944 0.227194 2.06796 99 96 82
0.316533 0.34873 2.6052 77 58 32
0.505214 0.344905 2.59088 66 36 35
0.466521 0.335279 2.54444 86 36 30
0.412517 0.335018 2.52738 80 24 16
0.103486 0.23452 2.03754 104 100 84
0.561374 0.381736 2.70235 126 99 93
0.403064 0.385086 2.57563 77 25 14
0.531058 0.410425 2.67384 116 90 90
0.437328 0.38638 2.5693 95 48 41
0.089322 -0.306761 2.42913 96 96 58
0.670625 -0.196984 2.05637 90 88 58
0.678295 -0.192432 2.03441 100 100 66
0.347154 -0.227143 2.56651 116 121 76
0.602889 -0.165474 2.48458 88 92 70
0.352697 -0.158019 2.52432 121 124 86
0.389153 -0.145499 2.54119 172 176 130
0.525951 -0.0669745 2.78943 126 118 86
0.408929 -0.0207459 2.54312 110 114 96
0.23965 -0.0167626 2.56207 82 76 56
0.197472 0.00959045 2.57121 120 108 86
0.144655 0.0422968 2.42925 90 93 59
0.15455 0.0519065 2.53338 74 71 54
0.223133 0.0748205 2.51659 78 59 50
0.196885 0.0836013 2.46796 118 72 42
0.415217 0.092773 2.40509 60 44 28
0.365035 0.0912567 2.23654 50 36 19
0.668471 0.208368 2.31733 125 122 107
0.497682 0.010178 2.65649 33 26 12
0.577692 0.0794599 2.45188 58 52 35
0.405884 0.0790948 2.29726 68 78 56
0.484212 0.247591 2.48203 84 47 42
0.561265 0.326849 2.61584 104 66 62
0.467008 0.380396 2.57523 88 40 36
0.278294 -0.233387 2.55624 124 130 82
0.680488 -0.0718859 2.60163 108 88 56
0.484077 -0.0510139 2.75588 76 60 48
0.537392 0.0359679 2.61178 34 30 20
0.40782 0.0705164 2.24689 84 90 68
0.593823 0.0838187 2.52194 72 50 34
0.468825 0.26699 2.48685 87 48 40
0.601854 -0.0669336 2.65863 78 87 49
0.335842 -0.201866 2.5546 108 110 74
0.315987 0.43044 2.65687 106 88 76
0.23385 0.00115391 2.57629 60 47 31
0.51599 0.0587904 2.49301 30 30 16
0.426771 0.0267828 2.59033 89 90 79
0.583869 0.344968 2.67841 96 64 57
0.224924 -0.0257581 2.52595 109 88 56
0.232035 0.0832921 2.52455 148 143 122
0.623824 0.189687 2.65663 130 120 105
0.509516 -0.0633975 2.87105 96 80 55
0.234628 0.0654543 2.52653 65 38 19
0.224202 0.0662787 2.51457 59 46 34
0.609031 0.0786567 2.56721 50 24 10
0.367274 0.153718 2.17658 78 68 38
0.599907 0.275107 2.69729 108 90 80
0.183147 -0.430175 2.65415 84 94 60
0.6919 -0.274214 2.50596 114 117 81
0.443013 -0.23213 2.53895 115 116 66
0.0147032 -0.128845 2.5946 82 80 37
0.531557 -0.102929 2.51748 62 64 50
0.468817 -0.0753844 2.38721 78 84 68
0.605428 -0.0699931 2.6591 68 79 38
0.139882 -0.0595739 2.51945 128 99 62
0.509044 -0.0721538 2.80702 150 156 114
0.389856 -0.0371221 2.49239 84 86 54
0.602333 -0.00101576 2.69304 73 43 24
0.362028 0.00520809 2.31125 63 66 30
0.18488 0.0117951 2.46567 110 106 70
0.196268 0.0427677 2.54428 119 110 94
0.18345 0.041713 2.47809 80 66 48
0.219774 0.0448594 2.19933 72 82 59
0.174174 0.0564009 2.45062 109 92 67
0.187604 0.0683124 2.45063 141 105 82
0.577486 0.0774694 2.4539 80 76 64
0.595921 0.0823738 2.51934 74 46 33
0.194745 0.107306 2.45327 126 97 76
0.406959 0.112522 2.24971 78 63 41
0.438221 0.135451 2.38946 121 77 57
0.367732 0.164028 2.15565 73 65 40
0.526196 0.223639 2.49554 85 55 53
0.393176 0.175553 2.1288 108 108 94
0.395401 0.232891 2.46585 58 18 10
0.568669 0.258607 2.56603 62 30 27
0.565791 0.299419 2.616 67 35 30
0.279349 0.372297 2.43464 92 86 68
0.441728 0.455369 2.60966 146 119 116
-0.00676484 -0.431334 3.03366 150 153 97
0.332152 -0.239367 2.62069 98 106 64
0.572753 -0.150907 2.51865 69 76 56
0.391729 -0.120157 2.50986 101 99 49
0.502914 -0.0911204 2.43992 60 65 42
0.611003 -0.0227514 2.72553 115 90 64
0.654487 0.00707821 2.60249 156 130 109
0.133018 0.0341914 2.46916 82 85 50
0.404302 0.114505 2.42563 66 29 18
0.408124 0.100936 2.20079 82 88 64
0.408286 0.116512 2.18136 58 68 48
0.396493 0.153247 2.16543 90 96 78
0.531635 0.198475 2.47753 96 72 70
0.403125 0.230531 2.45134 48 10 4
0.554222 0.397448 2.73893 124 99 94
0.345666 0.285208 2.05356 90 81 66
0.40848 0.436146 2.60782 110 64 48
0.477693 -0.248553 2.54047 84 93 56
0.564274 -0.132787 2.50617 70 76 62
0.431581 0.0495018 2.6223 54 54 38
0.598026 0.264793 2.65788 90 68 50
0.224676 0.025463 2.50421 58 62 44
0.232175 -0.120349 2.46069 94 92 54
0.283935 -0.235273 2.50147 116 116 67
0.332834 -0.14459 2.50075 101 99 54
0.147978 0.0262237 2.64066 69 70 52
0.521926 0.383281 2.62652 80 42 40
0.474163 -0.158186 2.63318 111 115 86
0.470142 -0.150724 2.63754 74 77 55
0.486339 -0.0868692 2.52875 70 74 44
0.493767 0.0139957 2.52336 50 50 32
0.263274 -0.0338622 2.63683 95 92 58
0.293074 0.258789 2.50832 94 68 46
0.428862 -0.235464 2.45442 127 130 86
0.350822 -0.157521 2.53953 113 118 79
0.173019 0.0200338 2.46325 68 56 36
0.587819 0.316125 2.67396 100 67 56
0.489149 -0.33652 2.57371 107 116 70
0.407311 -0.181984 2.52169 154 154 108
0.449755 -0.047141 2.52231 49 61 38
0.207224 0.0858308 2.46012 114 65 38
0.251752 0.380486 2.67061 96 77 62
0.210984 0.0659264 2.53789 42 30 16
0.628254 0.121876 2.52366 89 71 53
0.365633 0.254493 2.07994 108 98 78
0.495755 0.393831 2.63346 115 86 82
0.47771 -0.277397 2.61178 95 105 58
0.644082 -0.193872 2.12119 86 89 63
0.134897 -0.243152 2.3995 54 58 38
-0.61021 -0.328469 2.88334 146 143 89
0.570854 -0.158088 2.20359 92 92 88
0.62422 -0.184636 2.48349 88 96 73
0.480124 -0.132345 2.34322 82 82 50
0.344572 -0.0784596 2.48178 93 95 52
0.140775 -0.0432185 2.48716 144 124 78
0.566539 -0.0473277 2.71768 94 97 66
0.175676 -0.0217056 2.67175 141 128 92
0.609956 -0.0261278 2.65458 102 83 60
0.486668 -0.00377272 2.76248 53 38 26
0.416475 0.00628955 2.29396 63 72 50
0.393245 0.0174349 2.55298 94 90 74
0.395265 0.0304069 2.52588 63 64 50
0.199225 0.0430736 2.49586 86 74 46
0.194432 0.0407659 2.61455 92 84 71
0.587073 0.034659 2.64981 28 10 4
0.247161 0.0801706 2.50889 74 67 47
0.285392 0.0885991 2.36949 92 80 74
0.404489 0.083553 2.32101 31 34 21
0.633523 0.121314 2.36461 73 56 36
0.57113 0.284712 2.59861 95 66 64
0.585519 0.352512 2.74991 98 74 66
0.268592 0.381603 2.64184 110 74 64
0.515178 0.369826 2.63445 94 51 50
0.499847 0.377622 2.59818 101 68 66
0.347364 0.428158 2.61053 128 98 94
0.559475 -0.118717 2.53934 100 106 82
0.498665 -0.0924627 2.52203 51 56 30
0.622123 -0.0828902 2.66395 90 102 63
0.407072 -0.0334186 2.36204 94 100 68
0.53601 -0.0460375 2.73784 138 124 98
0.64759 -0.000361289 2.58421 146 114 82
0.232241 0.052519 2.41216 79 62 32
0.202388 0.0546423 2.18825 70 77 56
0.211994 0.0880508 2.44537 134 95 68
0.205236 0.0902298 2.48427 108 72 54
0.387837 0.0959744 2.3142 53 55 36
0.36705 0.100863 2.21962 101 92 62
0.626761 0.113278 2.49058 148 120 112
0.570666 0.33011 2.67048 71 28 18
0.0761973 0.277842 2.05768 122 109 92
0.461398 0.430155 2.6203 88 48 41
0.511385 -0.105136 2.5489 57 62 46
0.64649 0.0917463 2.53978 74 34 16
0.226361 0.174029 2.50706 142 122 98
0.381711 0.0585793 2.43673 42 44 32
0.60203 0.102367 2.42071 52 40 22
0.0332977 -0.317253 2.39435 104 105 71
0.455236 0.000701055 2.7018 19 9 7
0.647739 0.112104 2.5043 73 52 41
0.716243 -0.250687 2.48985 96 105 66
0.755343 -0.280986 2.45157 72 72 42
0.669585 0.00441547 2.56735 158 126 116
0.650626 0.06975 2.54669 140 94 77
0.660893 0.080516 2.56473 138 126 114
0.579668 0.0911291 2.50401 70 62 45
0.701673 0.260454 2.33258 144 120 106
0.856432 -0.326349 2.36401 108 116 71
0.671162 -0.198218 2.02281 78 74 40
0.409533 -0.0744303 2.44631 98 95 48
0.431385 0.0130759 2.20224 99 108 80
0.421965 0.0531444 2.46776 54 59 46
0.219111 0.38044 2.76076 69 60 36
0.551191 0.411496 2.83508 98 66 59
0.286641 -0.271985 2.22726 97 96 46
0.552983 -0.140351 2.26372 96 100 94
0.541809 -0.108043 2.5058 52 58 44
0.495102 -0.0857672 2.36313 74 82 71
0.426436 -0.010637 2.58371 70 78 70
0.188397 0.00575694 2.45843 113 109 62
0.197433 0.0396133 2.43047 82 61 44
0.204175 0.0761552 2.45494 120 82 58
0.648859 0.047073 2.67975 87 87 56
0.554243 0.0660699 2.63685 26 14 8
0.60933 0.0790444 2.56151 88 52 32
0.64552 0.0933955 2.54261 84 46 30
0.625789 0.1279 2.49421 93 62 56
0.622889 0.137848 2.6194 51 27 20
0.392992 0.159351 2.17253 76 81 62
0.540933 0.3131 2.59874 86 45 43
0.56283 0.378725 2.74546 106 71 62
0.520554 0.410967 2.6926 103 72 68
0.434357 0.434491 2.63082 94 47 36
0.52388 -0.124033 2.34489 86 94 83
0.172857 0.042383 2.4583 121 90 63
0.638547 0.0753413 2.55354 82 38 13
0.397582 0.167561 2.13119 92 94 76
0.70585 -0.0793266 2.64645 140 147 112
0.64969 0.112113 2.57946 108 82 73
0.237607 0.273146 2.58318 109 77 58
0.431286 -0.00650962 2.66197 26 22 17
0.422355 0.0204941 2.66152 32 32 22
0.500245 0.160372 2.43917 58 22 14
0.58693 0.317079 2.6749 68 32 24
0.616956 0.181144 2.73771 100 86 72
0.411301 0.224891 2.13678 84 79 57
0.519141 -0.370817 2.57702 118 130 88
0.267184 -0.146655 2.54936 62 67 33
0.318593 -0.0168382 2.55883 94 100 73
0.670269 0.211318 2.31691 90 80 62
0.607861 -0.496315 2.64056 103 108 67
0.630813 -0.189792 2.10777 60 55 38
0.34506 -0.16073 2.43299 127 126 78
0.715846 -0.150912 2.64976 120 130 88
0.44234 -0.0883508 2.58231 74 78 45
0.143909 -0.0266878 2.47343 150 124 78
0.674503 -0.0873265 2.63012 56 40 13
0.46783 -0.051701 2.59575 54 46 32
0.436044 -0.0667109 2.85889 127 121 80
0.421388 -0.00761758 2.75884 24 14 10
0.390547 0.0294443 2.49563 61 64 53
0.333322 0.121724 2.43165 78 50 40
0.626618 0.0968087 2.72485 120 110 96
0.627562 0.113875 2.7372 129 123 110
0.670226 0.107455 2.52592 84 62 48
0.60994 0.116787 2.49139 126 98 91
0.60899 0.179447 2.77084 98 85 72
0.394519 0.177152 2.12421 84 84 62
0.340767 0.257803 2.49843 47 18 14
0.600099 0.230656 2.69857 63 41 36
0.400385 0.229371 2.12549 72 66 48
0.544304 0.310571 2.6055 84 44 43
0.415197 -0.42059 2.82913 86 96 50
0.490133 -0.0622975 2.52063 60 62 46
0.429643 -0.06274 2.78731 154 123 82
0.571145 -0.00435492 2.65575 30 22 12
0.617883 0.343018 2.66906 106 86 69
0.678286 -0.213775 2.48478 53 64 38
0.633092 0.149779 2.63612 74 54 44
0.735984 -0.265697 2.48655 73 78 45
0.414299 -0.200255 2.66926 82 88 57
0.360158 -0.0405475 2.35706 106 106 74
0.507436 0.00321646 2.65819 40 34 20
0.413904 0.0806386 2.21591 68 81 44
0.533725 -0.103158 2.56066 86 96 72
0.687658 -0.0846651 2.70296 140 146 110
0.233221 0.0484299 2.17852 50 55 34
0.888343 -0.376387 2.4449 64 74 28
0.62638 0.115688 2.38159 108 96 80
0.413731 0.258644 2.0688 66 60 34
0.330076 -0.18685 2.39425 100 102 50
0.336854 -0.17287 2.41645 112 111 57
0.414623 -0.0560983 2.43995 56 56 27
0.383818 0.00248157 2.3557 74 79 45
0.630005 -0.0365661 2.63155 118 99 68
0.413748 0.00939015 2.2921 88 96 61
0.412583 0.0169553 2.28588 78 86 52
0.332826 0.0958855 2.42657 56 30 16
0.571241 0.357083 2.78691 108 89 80
0.512787 0.391051 2.64321 66 24 20
0.537153 -0.195989 2.27485 84 84 73
0.500335 -0.057907 2.80996 83 64 40
0.679714 -0.0559834 2.61159 138 98 74
0.445932 0.0791433 2.43623 44 33 26
0.389969 0.274439 2.07044 108 96 76
0.171059 -0.196081 2.42168 93 88 56
0.357905 -0.0624676 2.39741 149 146 104
0.126199 -0.468877 2.6955 114 112 72
0.84638 -0.306795 2.39482 79 82 47
0.661594 -0.190699 2.09935 61 67 48
0.301111 -0.0697594 2.48045 93 93 58
0.276715 -0.0985979 2.81003 126 128 82
0.380461 -0.0251412 2.74255 34 24 18
0.34992 0.0126333 2.31524 62 66 29
0.413894 0.0749575 2.40869 16 14 8
0.590842 0.0632215 2.60176 59 30 10
0.453652 0.123429 2.41955 55 25 14
0.583043 0.11404 2.82682 90 80 65
0.570565 0.136288 2.60718 84 64 60
0.625406 0.12145 2.38729 69 60 32
0.496397 0.183107 2.77554 56 27 22
0.68454 0.263989 2.35248 94 49 22
0.396705 0.270539 2.06923 91 80 53
0.37172 0.1831 2.41908 75 34 24
0.385989 0.199529 2.1041 88 89 65
0.505074 -0.360626 2.62852 68 74 38
0.249643 0.0290474 2.19864 98 96 59
0.961464 -0.00113906 3.56141 147 160 110
0.154939 0.131891 2.0914 76 70 50
0.89988 -0.400709 2.44338 110 118 73
0.64479 -0.20101 2.12927 93 100 74
0.675505 -0.197139 2.02225 104 107 64
0.607791 -0.17707 2.14571 76 74 62
0.307169 -0.111188 2.53114 46 56 21
0.201993 0.0259354 2.5165 72 68 49
0.191833 0.0909715 2.13642 72 72 46
0.8856 -0.0984691 3.54237 154 166 114
0.186429 0.0882326 2.46233 139 104 78
