ply
format ascii 1.0
element vertex 423
property float x
property float y
property float z
property uchar red
property uchar green
property uchar blue
end_header
-4.98668 -1.19531 -1.56573 0 255 0
-4.9895 -1.25126 -1.67934 0 255 0
-4.97741 -1.19093 -1.40379 0 255 0
-5.01593 -1.25267 -1.40597 0 255 0
-5.02502 -1.19498 -1.53168 0 255 0
-5.01862 -1.26385 -1.71693 0 255 0
-5.02217 -1.28219 -1.75381 0 255 0
-5.05299 -1.278 -1.71415 0 255 0
-4.9803 -1.24889 -1.57448 0 255 0
-4.14798 -1.20933 -1.19839 96 60 28
-3.84301 -1.57856 -1.10503 141 135 83
-4.38654 -0.998663 -1.15291 91 40 43
-4.02244 -1.24922 -1.80362 140 118 104
-4.34021 -0.973769 -1.15716 101 14 8
-4.21161 -1.05003 -1.20683 145 95 79
-4.236 -1.18232 -1.13808 61 28 22
-4.15201 -1.52914 -1.64278 105 59 25
-4.32794 -0.96696 -1.17808 136 54 22
-4.13597 -1.42204 -1.74275 127 82 55
-4.23251 -1.10261 -1.53085 66 49 40
-4.08372 -1.14709 -1.3676 157 109 90
-4.16798 -1.2472 -1.15864 137 122 78
-4.03343 -1.19671 -1.3658 148 131 104
-4.32658 -1.03061 -1.17233 115 38 36
-4.18738 -1.44463 -1.74323 124 104 91
-4.43253 -1.10623 -1.11646 150 70 56
-4.40923 -1.07356 -1.1183 166 96 84
-4.43215 -1.09625 -1.12995 150 49 48
-4.44005 -1.15529 -1.12638 96 96 122
-4.4134 -1.04895 -1.14755 116 9 12
-4.39923 -1.06854 -1.16122 94 4 5
-4.42644 -1.1046 -1.1538 81 12 28
-4.42003 -1.04433 -1.1416 100 10 0
-4.4255 -1.05033 -1.10813 166 122 69
-4.41808 -1.10708 -1.16507 115 35 34
-4.41567 -1.02191 -1.12172 165 130 96
-4.42713 -1.09249 -1.1588 104 16 24
-4.40095 -1.06321 -1.1021 140 80 61
-4.4351 -1.11504 -1.13135 170 48 50
-4.41556 -1.12124 -1.16269 131 58 60
-4.40924 -1.14397 -1.14489 142 110 89
-4.37274 -1.05831 -1.16883 78 60 60
-4.3896 -1.0526 -1.16367 126 120 126
-4.43509 -1.08733 -1.15575 111 15 26
-4.43867 -1.10658 -1.12862 146 54 50
-4.39575 -1.03173 -1.1565 80 65 68
-4.44015 -1.15172 -1.11819 136 127 118
-4.44023 -1.10277 -1.13416 142 34 34
-4.4389 -1.14785 -1.11992 129 123 116
-4.42492 -1.10782 -1.16135 120 39 45
-4.41959 -1.06224 -1.12191 135 53 28
-4.39196 -1.02768 -1.15411 109 36 40
-4.41682 -1.11481 -1.1557 136 64 70
-4.41042 -1.11287 -1.16386 148 84 83
-4.43729 -1.10096 -1.14184 109 20 28
-4.42171 -1.05496 -1.13365 139 37 12
-4.18623 -1.05333 -1.20949 125 73 56
-4.38831 -1.04094 -1.16333 115 109 122
-4.19807 -1.41269 -1.68972 158 138 134
-4.39231 -1.00814 -1.15274 98 43 43
-4.38665 -1.01269 -1.15889 106 38 42
-4.44223 -1.09029 -1.14814 110 18 28
-4.40392 -1.13892 -1.15643 150 118 101
-4.40202 -1.07862 -1.15577 75 2 3
-4.33251 -0.935518 -1.20013 136 72 74
-4.42606 -1.09413 -1.1173 146 94 81
-4.42795 -1.1575 -1.14038 125 114 102
-4.40102 -1.05702 -1.159 102 56 58
-4.03575 -1.54965 -1.72719 98 84 59
-4.40134 -1.04489 -1.15538 82 65 67
-4.03799 -1.34287 -1.64036 104 105 75
-4.26199 -1.28102 -1.12893 62 35 17
-4.11791 -1.45998 -1.55637 88 54 26
-4.4101 -1.05718 -1.10987 151 104 58
-4.08453 -1.11041 -1.38675 98 58 34
-4.19631 -1.00331 -1.17554 129 84 61
-4.24064 -1.27825 -1.14163 63 34 16
-3.82456 -1.46239 -1.02777 136 130 77
-4.13855 -1.17575 -1.31174 182 132 111
-4.43958 -1.10719 -1.1496 108 11 22
-4.33774 -0.950811 -1.16273 113 22 8
-4.42967 -1.13847 -1.12576 97 86 92
-4.02416 -1.14844 -1.41326 116 76 40
-4.24666 -1.08981 -1.49396 148 110 108
-4.25284 -1.1619 -1.23598 196 136 116
-4.248 -1.08613 -1.48104 137 48 43
-4.33923 -1.11751 -1.18547 120 56 24
-4.42255 -1.14451 -1.13587 108 96 94
-4.19596 -1.39924 -1.70143 126 84 58
-4.23858 -1.10945 -1.51068 138 40 32
-4.17279 -1.02772 -1.26424 134 100 88
-4.26511 -1.24396 -1.14029 60 22 12
-4.41231 -1.1637 -1.12251 132 124 110
-4.24905 -1.28722 -1.1116 136 124 88
-4.23977 -1.09542 -1.52446 141 42 38
-4.42353 -1.08345 -1.14274 120 16 30
-4.05946 -1.36705 -1.60318 100 50 20
-4.1198 -1.5144 -1.6164 120 104 68
-4.42117 -1.11308 -1.16164 160 145 144
-3.64419 -1.41668 -1.35186 134 132 83
-4.23932 -1.10104 -1.53666 146 88 82
-4.42127 -1.16113 -1.1339 117 108 97
-3.64038 -1.35985 -1.57448 112 110 67
-3.97547 -1.17785 -1.59554 106 90 68
-4.14516 -1.56749 -1.6401 158 145 92
-4.20957 -1.18846 -1.19188 92 48 26
-4.43459 -1.16984 -1.13097 148 138 110
-4.4133 -1.03591 -1.13951 130 30 15
-4.21169 -1.08889 -1.53779 98 46 42
-4.41642 -1.02747 -1.11549 146 98 37
-4.43432 -1.11357 -1.11238 161 132 108
-4.20942 -1.08214 -1.42151 124 98 90
-4.2313 -1.43465 -1.67251 128 99 90
-4.23222 -1.4397 -1.63522 126 62 38
-4.43322 -1.12795 -1.11777 160 114 90
-4.38697 -1.03485 -1.17501 92 76 77
-4.15744 -1.50793 -1.63347 128 75 55
-4.26536 -1.25431 -1.08775 142 136 90
-4.20111 -1.04826 -1.5083 124 98 100
-4.10367 -1.29402 -1.71119 124 82 56
-4.27651 -1.25567 -1.13024 116 76 59
-4.41785 -1.02547 -1.11971 158 118 72
-4.03048 -1.23257 -1.8037 146 106 80
-4.22901 -1.18223 -1.19621 102 61 32
-4.14855 -1.07865 -1.34092 180 128 100
-4.27635 -1.1631 -1.45813 156 103 81
-3.661 -1.32354 -1.29239 110 106 62
-4.14119 -1.02879 -1.0908 145 119 95
-3.66302 -1.42015 -1.40698 123 122 72
-4.42794 -1.15849 -1.10707 121 118 104
-4.14323 -1.04779 -1.29144 156 126 120
-4.1197 -1.31027 -1.33935 96 84 41
-4.3318 -0.985019 -1.1579 140 98 72
-4.44115 -1.15562 -1.11828 115 110 104
-4.23262 -1.43598 -1.63705 130 83 54
-4.02411 -1.27305 -1.80507 144 127 102
-4.25326 -1.27165 -1.08926 142 132 85
-4.24892 -1.23363 -1.07715 135 126 82
-3.96469 -1.44329 -1.10648 138 132 80
-4.07552 -1.31779 -1.61738 94 58 40
-4.12828 -1.17788 -1.6894 168 111 108
-4.05584 -1.22129 -1.77419 152 104 85
-4.21081 -1.1413 -1.22873 127 80 66
-4.21359 -1.14424 -1.15095 92 52 42
-4.3888 -1.04045 -1.16326 112 106 120
-4.02173 -1.40642 -1.73529 132 88 66
-4.02996 -1.41824 -1.74282 137 110 72
-4.38733 -1.01248 -1.15944 112 41 46
-4.24609 -1.27834 -1.14491 61 35 19
-4.07399 -1.37539 -1.60023 143 118 78
-4.32814 -1.11541 -1.17699 122 74 38
-4.3329 -0.935144 -1.20034 136 79 76
-4.26743 -1.24433 -1.14248 88 40 28
-4.12184 -1.43324 -1.55709 124 110 76
-4.13657 -1.36027 -1.67693 173 79 60
-4.03814 -1.41023 -1.73127 89 60 41
-4.09365 -1.32366 -1.7454 84 60 40
-4.39226 -1.06045 -1.16194 86 64 69
-4.36118 -1.03813 -1.18679 112 26 27
-4.38454 -1.06072 -1.16972 113 99 104
-4.09513 -1.33198 -1.59363 133 102 82
-4.10996 -1.28339 -1.67837 163 109 79
-4.18914 -1.00589 -1.15108 118 86 62
-4.34095 -0.94116 -1.1481 156 62 26
-4.32227 -1.11116 -1.21033 170 128 108
-4.07925 -1.23726 -1.76164 153 118 100
-4.10614 -1.33114 -1.71394 130 86 74
-4.02614 -1.2749 -1.80375 147 131 107
-4.3342 -0.955477 -1.1725 92 30 30
-4.12154 -1.31188 -1.33982 98 90 48
-4.20569 -1.0413 -1.46847 134 102 96
-4.14478 -1.05754 -1.27392 83 43 32
-4.24978 -1.09075 -1.49244 138 105 101
-3.6486 -1.4212 -1.53551 142 140 92
-4.41518 -1.1207 -1.16268 136 74 72
-4.21925 -1.44763 -1.69685 172 152 146
-4.37791 -1.05823 -1.17102 76 60 64
-4.23268 -1.18254 -1.21944 102 62 38
-4.16047 -1.03461 -1.27758 132 100 94
-4.03205 -1.17831 -1.78946 137 107 94
-4.02293 -1.15164 -1.41861 96 72 38
-4.08321 -1.53351 -1.76444 140 126 82
-4.11293 -1.35123 -1.71696 91 46 32
-4.15935 -1.45936 -1.7631 107 44 32
-4.34116 -0.950146 -1.15227 154 76 36
-4.23382 -1.12165 -1.53666 118 22 24
-4.42754 -1.11455 -1.16069 124 36 38
-4.39561 -1.03058 -1.1561 92 60 64
-4.07431 -1.388 -1.61529 116 54 28
-4.22629 -1.17031 -1.14154 62 20 13
-4.0324 -1.23611 -1.5894 108 72 42
-4.25481 -1.13279 -1.52214 116 18 17
-4.15319 -1.56087 -1.6647 149 138 88
-4.37327 -1.01637 -1.17542 99 38 40
-4.24235 -1.16437 -1.27728 86 44 24
-4.1333 -1.34061 -1.69674 132 118 120
-4.03515 -1.36426 -1.62587 103 69 44
-4.1344 -1.22704 -1.32633 71 30 18
-4.20575 -1.27688 -1.1467 96 66 23
-4.21934 -1.16738 -1.46859 127 76 50
-4.22174 -1.20722 -1.30174 90 44 22
-4.11251 -1.48863 -1.55224 116 92 65
-4.03654 -1.55134 -1.7263 142 122 88
-4.04482 -1.3522 -1.61711 64 24 16
-4.26566 -1.15373 -1.49143 107 20 12
-4.13379 -1.32852 -1.23041 68 53 19
-4.03557 -1.16537 -1.40345 124 104 80
-4.01859 -1.31323 -1.62419 74 51 30
-4.10598 -1.27553 -1.68345 162 127 102
-4.22186 -1.20081 -1.29798 72 25 13
-4.20301 -1.2866 -1.1342 91 75 37
-4.29483 -1.10899 -1.51639 127 24 24
-4.00625 -1.11119 -1.69023 184 164 158
-4.09117 -1.40229 -1.61205 156 140 102
-4.20957 -1.07094 -1.51941 132 48 44
-4.04182 -1.23175 -1.59219 109 75 46
-4.15537 -1.55501 -1.6668 144 136 84
-4.03987 -1.15244 -1.68734 204 180 175
-4.1765 -1.35977 -1.26326 145 140 95
-4.09495 -1.50947 -1.54876 114 96 58
-4.12334 -1.4775 -1.54178 119 99 56
-4.12584 -1.29844 -1.65749 94 66 33
-4.278 -1.15448 -1.48511 78 14 12
-4.06181 -1.39951 -1.60413 146 120 76
-4.11191 -1.35129 -1.32043 124 118 74
-3.99146 -1.2814 -1.644 86 70 38
-4.10846 -1.25359 -1.35649 107 90 65
-4.2848 -1.14704 -1.46278 132 35 24
-3.58705 -1.32751 -1.2694 110 108 66
-4.14726 -1.03059 -1.09336 133 108 82
-4.18782 -1.12528 -1.15971 145 99 76
-4.2366 -1.41799 -1.68434 148 130 123
-4.10639 -1.37161 -1.29526 138 130 88
-4.22994 -1.14754 -1.54753 134 118 104
-4.10212 -1.34757 -1.59506 114 80 54
-4.26042 -1.28226 -1.14637 63 41 24
-4.13972 -1.33963 -1.33671 137 132 87
-4.1241 -1.35441 -1.3224 137 132 88
-4.07439 -1.30731 -1.59994 126 88 62
-4.02625 -1.2576 -1.63499 93 59 38
-4.11136 -1.21812 -1.32685 71 28 18
-4.21478 -1.03986 -1.48096 144 116 111
-4.18221 -1.34927 -1.33407 45 26 8
-3.96159 -1.27098 -1.64309 86 62 36
-4.09153 -1.1704 -1.68876 160 123 118
-4.19293 -1.20188 -1.31901 130 86 63
-4.20775 -1.13781 -1.56911 138 120 114
-4.10784 -1.3669 -1.30336 131 124 78
-4.27293 -1.11068 -1.17019 151 126 106
-4.15835 -1.0173 -1.13252 120 74 46
-4.23862 -1.42633 -1.67885 136 112 104
-4.0595 -1.20229 -1.7828 158 130 105
-4.30067 -1.14857 -1.56471 94 78 67
-3.96362 -1.16741 -1.59769 102 80 58
-4.07923 -1.38356 -1.64775 84 81 50
-4.24354 -1.22829 -1.07348 128 114 78
-4.11607 -1.34638 -1.3247 125 120 74
-4.26597 -1.10996 -1.56122 140 81 75
-4.05421 -1.03981 -1.22545 102 56 36
-4.21446 -1.27634 -1.13979 43 25 12
-4.34397 -0.95491 -1.12894 154 79 62
-4.36912 -0.997631 -1.15066 109 19 20
-4.14507 -1.32402 -1.31817 48 25 14
-4.20053 -1.43983 -1.59538 108 72 42
-4.24146 -1.19398 -1.11878 86 44 32
-4.29522 -0.975498 -1.1679 120 61 47
-4.18396 -1.02143 -1.18268 124 72 46
-4.3635 -1.07752 -1.17565 99 25 5
-4.19885 -1.21108 -1.327 131 84 67
-4.12843 -1.09036 -1.35042 150 96 73
-4.20446 -1.14458 -1.0883 124 102 74
-4.1252 -1.14155 -1.31769 170 117 93
-4.20825 -1.38557 -1.64584 132 86 64
-4.12446 -1.2037 -1.06629 106 56 36
-4.12412 -1.01025 -1.19712 80 38 21
-4.32511 -1.13948 -1.47691 148 93 78
-4.13452 -1.23619 -1.23202 112 84 48
-4.03846 -1.15407 -1.19368 100 53 36
-4.31649 -1.13577 -1.34911 114 66 50
-4.22655 -1.10832 -1.54274 136 27 29
-4.25091 -1.06175 -1.3018 103 56 40
-4.3384 -0.928489 -1.14349 160 70 63
-4.291 -1.12089 -1.511 100 24 22
-4.01759 -1.24327 -1.60623 58 31 16
-4.41224 -1.11284 -1.15434 157 138 142
-4.10782 -1.24843 -1.357 103 88 64
-4.21474 -1.157 -1.32367 162 112 88
-4.44179 -1.15996 -1.15491 148 134 118
-4.31607 -0.923323 -1.12236 148 43 36
-4.12209 -1.35131 -1.22707 104 90 59
-4.2259 -1.23106 -1.16679 54 20 6
-4.31489 -0.926248 -1.11894 145 30 22
-4.40635 -1.0383 -1.16442 80 68 68
-4.0436 -1.27847 -1.77598 63 35 20
-4.37999 -0.996633 -1.13171 143 24 24
-4.38931 -0.993157 -1.13983 168 88 82
-4.42368 -1.02741 -1.11901 147 107 65
-4.09942 -1.21035 -1.6579 170 146 138
-4.36681 -0.993608 -1.16359 133 71 52
-4.45648 -1.02271 -1.09517 230 158 162
-4.31226 -0.940928 -1.12267 152 58 48
-4.42521 -1.13776 -1.13902 102 18 22
-4.37827 -1.00307 -1.15835 104 37 38
-4.34612 -0.960467 -1.16441 118 31 26
-4.09499 -1.21352 -1.75181 162 139 128
-4.41793 -1.13873 -1.11868 126 110 106
-4.075 -1.44895 -1.55454 144 119 77
-4.12617 -1.47981 -1.53883 142 129 84
-4.12923 -1.36154 -1.66901 84 32 20
-4.06269 -1.48084 -1.55122 134 96 48
-4.07047 -1.35475 -1.60316 136 88 64
-4.42205 -1.14534 -1.13605 130 116 112
-4.42649 -1.13332 -1.12722 100 14 24
-4.22643 -1.13294 -1.1671 140 87 68
-4.20383 -1.45642 -1.67246 93 58 32
-4.35353 -0.963548 -1.13696 157 102 72
-3.9407 -1.30212 -1.67494 96 82 55
-4.4657 -1.02314 -1.0915 153 100 90
-4.40346 -1.06851 -1.12989 94 6 6
-4.42149 -1.11617 -1.10385 164 132 112
-4.07302 -1.29337 -1.60635 99 66 36
-4.0895 -1.37966 -1.65067 78 71 52
-4.45871 -1.01235 -1.09473 164 108 100
-4.38691 -1.06524 -1.16547 112 36 37
-4.15432 -1.56309 -1.66129 154 134 91
-4.20796 -1.38827 -1.66069 130 84 63
-4.31173 -0.972277 -1.17966 136 54 34
-4.31038 -1.12299 -1.19319 174 120 100
-4.23393 -1.24635 -1.06957 139 131 88
-4.03427 -1.26076 -1.78541 39 14 0
-4.41374 -1.03853 -1.14015 128 20 13
-4.20581 -1.15774 -1.13748 68 26 17
-4.40631 -1.16325 -1.12614 150 140 128
-4.45083 -1.03945 -1.08979 166 135 121
-4.254 -1.26664 -1.08559 142 134 92
-4.43328 -1.1632 -1.11601 132 126 115
-4.41601 -1.03616 -1.14141 133 27 14
-3.63653 -1.42654 -1.52992 142 141 96
-4.31882 -0.981029 -1.17391 148 61 38
-4.08654 -1.27257 -1.66987 105 60 39
-3.81885 -1.46394 -1.02521 140 136 86
-4.42829 -1.04263 -1.12011 176 122 56
-4.23175 -1.1502 -1.10946 152 132 111
-4.39928 -1.0383 -1.15751 98 90 95
-4.14141 -1.5599 -1.67061 148 135 90
-4.10066 -1.32068 -1.72151 84 57 55
-4.05142 -1.1911 -1.78754 140 114 96
-4.09271 -1.34028 -1.60344 76 48 34
-4.44719 -1.03987 -1.09049 162 128 108
-4.11306 -1.34437 -1.67403 75 48 31
-4.45652 -1.03411 -1.08656 166 129 114
-4.45626 -1.03926 -1.09051 170 137 119
-4.39141 -1.15638 -1.12237 130 119 111
-4.43426 -1.0422 -1.12478 168 113 45
-4.19023 -1.47476 -1.66969 82 48 30
-4.41467 -1.07954 -1.11606 162 118 101
-4.37536 -1.06073 -1.1744 112 39 41
-4.43465 -1.10741 -1.15029 110 10 22
-4.32485 -0.952897 -1.16475 71 4 6
-4.45101 -1.00733 -1.09865 166 121 112
-4.43229 -1.11499 -1.13273 173 52 56
-4.18599 -1.05372 -1.23706 103 54 32
-4.26379 -1.18531 -1.21068 102 58 33
-4.35355 -0.974405 -1.16301 112 27 12
-4.20833 -1.12878 -1.14465 150 119 98
-4.23387 -1.27775 -1.15676 108 88 51
-3.97247 -1.27727 -1.58836 160 146 120
-4.45734 -1.02832 -1.08449 162 123 108
-3.96239 -1.28349 -1.59281 155 142 116
-4.44701 -1.00834 -1.10642 162 130 113
-4.11929 -1.28625 -1.26388 82 36 17
-4.44286 -1.00549 -1.10003 159 117 104
-4.18323 -1.05092 -1.19082 148 100 84
-4.21322 -1.19373 -1.1879 118 77 58
-4.45236 -1.00751 -1.09413 168 140 128
-4.17893 -1.07237 -1.21097 133 84 66
-4.19702 -1.05975 -1.17329 190 144 122
-4.4342 -1.10404 -1.14198 112 16 30
-4.23321 -1.11098 -1.54238 138 26 29
-4.08518 -1.53143 -1.75742 112 85 54
-4.18995 -1.46454 -1.75087 133 102 78
-4.25189 -1.20897 -1.13324 62 30 20
-4.01184 -1.27285 -1.78608 66 42 24
-4.14807 -1.57039 -1.65276 144 126 77
-4.16659 -1.54767 -1.6684 150 141 90
-4.12402 -1.36692 -1.28586 42 23 8
-4.15543 -1.42486 -1.56472 113 105 74
-4.09651 -1.33236 -1.32025 130 123 82
-4.07687 -1.38945 -1.6139 102 36 14
-4.13364 -1.2967 -1.35985 86 70 33
-4.13701 -1.28305 -1.33514 116 67 50
-4.36329 -1.15472 -1.04992 142 134 118
-4.22693 -1.18909 -1.13912 93 45 28
-4.10772 -1.25121 -1.31827 58 20 10
-4.23146 -1.17122 -1.11286 152 96 68
-4.40146 -1.14017 -1.15303 148 108 90
-4.10842 -1.30314 -1.65427 96 66 40
-4.20062 -1.18617 -1.30302 130 78 60
-4.0082 -1.28226 -1.6276 102 76 49
-4.03109 -1.257 -1.73831 195 172 157
-4.27426 -1.16455 -1.49362 109 52 32
-4.1101 -1.18796 -1.68898 222 200 194
-4.30447 -0.921328 -1.11053 142 28 21
-4.185 -1.55803 -1.65113 153 138 86
-4.15964 -1.45645 -1.57686 118 90 66
-3.96825 -1.37658 -1.24611 110 102 59
-4.12173 -1.40682 -1.57197 110 90 50
-4.14166 -1.36106 -1.66793 120 79 62
-3.94994 -1.36232 -1.61229 59 13 8
-3.89778 -1.27434 -1.28139 114 108 70
-4.07651 -1.32315 -1.58022 120 107 76
-4.0095 -1.34243 -1.64153 84 68 30
-3.7508 -1.36319 -1.63755 138 116 94
-3.80876 -1.16394 -1.21633 158 118 102
-4.2409 -1.42656 -1.5911 138 103 81
-4.10253 -1.34092 -1.32172 132 125 80
-4.02632 -1.35162 -1.63064 74 70 40
-4.11885 -1.26553 -1.36381 128 112 83
-3.95064 -1.15154 -1.39115 106 88 58
-4.10274 -1.21519 -1.66853 220 172 148
-4.2089 -1.10075 -1.5504 134 86 72
-4.02984 -1.42359 -1.71946 118 76 60
-4.22368 -1.16426 -1.45655 146 92 72
