ply
format ascii 1.0
element vertex 609
property float x
property float y
property float z
property uchar red
property uchar green
property uchar blue
end_header
1.99395 0.244194 0.260319 0 255 0
0.337613 0.242432 -1.16035 0 255 0
0.673277 0.193179 -1.24973 0 255 0
1.04561 0.212949 -1.35019 0 255 0
1.45685 0.19156 -1.41973 0 255 0
1.89614 0.178336 -1.4581 0 255 0
2.3132 0.139343 -1.44352 0 255 0
2.70098 0.0627495 -1.32398 0 255 0
3.15507 -0.00141234 -1.11682 0 255 0
3.31976 -0.0530575 -1.02726 0 255 0
3.15153 0.316991 -1.08567 0 255 0
2.777 0.436876 -1.10217 0 255 0
2.29589 0.422772 -1.22659 0 255 0
1.86819 0.437644 -1.38433 0 255 0
0.562654 -0.43091 -1.34895 0 255 0
0.468949 0.892963 2.81612 203 198 176
1.45171 -0.127077 1.76887 130 128 97
1.86592 0.262153 0.693497 142 142 102
1.28894 0.637196 1.42134 90 52 36
-0.305199 -0.98124 2.85683 148 145 126
-0.238938 -0.157948 3.60749 78 67 40
2.06687 0.349731 3.24239 134 140 104
2.06005 0.19356 3.10117 216 186 178
-0.12301 -0.914723 2.97565 126 124 86
0.245145 0.389491 2.03486 116 116 70
0.601421 -0.269347 3.12407 140 138 115
0.599013 -0.269933 3.13119 140 138 115
1.60104 0.643946 2.69297 120 97 90
2.05192 0.170197 3.11848 129 86 67
0.516225 0.607452 2.95901 101 58 32
0.540914 -1.2203 3.8188 188 190 143
1.28397 0.708381 2.69785 106 70 60
2.60516 -1.07066 2.82129 190 193 142
0.759667 -0.148812 3.15767 132 130 102
-0.399041 -1.11958 2.87143 169 170 115
-0.291551 -1.03713 2.92537 167 166 114
-0.267885 -1.01783 2.95345 166 166 116
-0.198548 -0.934058 2.92103 102 104 84
0.188793 -0.715427 3.09724 165 166 112
0.565339 0.697446 3.1242 64 22 4
1.01336 1.42553 3.35534 78 28 18
1.249 0.899463 2.84463 44 14 7
1.27566 1.10458 2.98976 124 102 96
1.2299 0.65842 2.75142 40 14 8
1.26986 0.997908 2.91309 122 101 94
1.33402 0.230587 3.46705 14 6 2
1.44654 1.59575 3.4612 112 71 75
1.53642 1.13031 3.11235 46 12 7
1.499 -0.0704491 3.08136 112 115 102
1.55675 1.11392 3.1013 119 94 90
1.77048 -0.0960656 4.05836 65 64 32
1.79403 -0.0855731 4.08935 164 168 134
1.79403 -0.0855731 4.08935 164 168 134
1.90944 0.423557 3.24032 148 102 82
2.41801 -0.908258 2.65588 170 174 122
-0.279557 -1.02127 2.93162 109 108 73
-0.279557 -1.02127 2.93162 109 108 73
-0.151928 -0.838378 2.89812 112 109 85
0.507707 -1.10749 3.67946 108 113 80
1.29206 1.36326 3.19777 118 95 92
1.23599 0.576433 2.57589 21 7 2
2.07208 -0.770551 3.04577 98 100 72
0.924481 0.826445 4.08558 146 100 77
1.30139 0.532806 0.506721 78 76 51
-0.357924 -1.03653 2.87182 44 50 28
-0.112287 -0.811818 2.91586 110 104 85
0.153717 -0.0323959 3.42306 150 148 94
0.312472 -0.0235668 3.41718 42 39 20
0.718789 -0.99958 3.65617 155 160 110
0.793212 -0.818578 3.51895 68 82 38
0.847707 -0.182455 3.34122 56 62 24
0.995592 0.614674 1.88549 114 117 96
0.955904 -0.544935 3.3473 73 85 38
1.03971 1.60577 3.51112 124 92 85
1.12459 1.02704 2.96504 32 4 1
1.18721 0.692251 2.64454 170 120 93
1.28292 1.20252 3.06568 107 65 58
1.27497 0.677847 2.64701 164 142 140
1.38305 1.74568 3.54356 142 106 102
1.48283 1.78686 3.61539 94 62 58
1.53405 1.58162 3.45259 124 98 96
1.54412 1.40729 3.30913 125 94 95
1.53283 1.25686 3.20825 44 16 9
1.54354 0.807626 2.87462 25 8 4
1.75374 -0.0825329 4.01785 154 164 122
1.76821 1.39482 3.55644 44 14 8
1.76532 -0.309182 3.02651 48 61 38
1.84686 0.501615 3.0137 136 112 99
2.00096 1.09974 2.46557 79 46 26
0.317552 -1.43911 4.03857 73 78 43
1.11008 0.765656 2.72542 89 34 14
1.25231 0.763889 2.69957 66 29 20
-0.356729 -1.03643 2.87035 42 48 24
0.106258 -0.780385 3.03526 153 151 92
0.135022 -0.719135 3.04613 48 56 26
2.72641 -1.24332 2.4997 62 70 42
-0.356919 -1.10095 2.86959 156 154 100
1.32622 0.796221 2.7784 44 17 12
1.56835 0.791329 2.87243 112 91 86
1.62169 -0.537134 2.78395 66 75 40
1.8004 -0.204551 0.569964 154 158 106
0.722397 -0.2792 4.66823 62 69 40
2.06292 -0.631684 2.79432 88 92 69
2.02896 1.18638 4.13348 150 143 131
1.84562 -1.52171 3.49419 156 164 112
-0.625571 -1.27643 2.91433 156 156 102
-0.445306 0.460776 3.06921 87 86 34
-0.42317 -1.10998 2.90849 50 54 23
-0.35144 -1.08632 2.85921 156 154 100
-0.294421 -0.94239 2.87534 73 68 45
-0.269336 -0.930905 2.90704 46 48 24
0.250077 -0.448979 2.93734 75 72 43
0.276366 0.114022 3.212 79 54 30
0.335146 0.204883 3.11524 148 146 92
0.416636 0.611354 3.06913 95 50 22
0.457472 0.612139 3.09124 92 48 18
0.42341 -1.30358 3.84509 59 71 36
0.412014 -1.36786 3.90738 159 159 106
0.786172 1.66957 3.8275 132 98 81
1.03656 0.632117 2.03924 170 118 91
0.933026 1.26222 3.21897 50 15 6
0.957278 1.08392 3.07096 16 8 6
0.960241 1.24848 3.20111 126 102 96
1.00434 1.42223 3.32635 125 95 88
1.22318 0.804146 2.73479 66 28 22
1.25143 1.00431 2.91483 46 14 6
1.25636 0.53323 2.59093 75 49 38
1.26537 0.893338 2.83973 116 96 90
1.27737 1.10445 2.98394 124 94 90
1.26841 0.531134 2.59515 40 14 2
1.2835 1.20256 3.06197 108 65 58
1.2822 0.573718 2.52128 92 60 47
1.31047 1.37823 3.20429 52 14 8
1.29515 0.636319 2.68743 38 14 10
1.42181 1.6646 3.38611 65 22 18
1.35388 0.306707 3.53653 10 6 4
1.65764 1.67313 3.69164 74 42 36
1.59391 0.0666154 4.06699 25 10 4
1.61892 0.765358 2.83297 58 28 26
1.73636 1.62125 3.75446 82 56 54
1.64022 0.446149 2.91348 56 50 34
1.70967 -0.0593637 4.18341 142 160 117
1.6505 -0.393083 1.69319 76 78 64
1.90236 0.592987 2.97804 163 136 126
1.96089 0.452045 3.1438 80 35 8
1.96104 0.450824 3.13645 80 35 8
1.93268 -0.626069 3.00165 62 64 28
1.99734 1.09693 2.43434 86 52 30
2.28261 -0.863277 2.80398 160 164 113
2.74612 -1.27543 2.51216 64 72 42
-0.413725 -1.00649 2.8978 149 148 95
-0.258897 -0.865806 2.89737 146 146 88
-0.22958 -0.945992 2.92036 105 102 88
0.850396 -0.542784 3.33182 102 110 74
2.75359 -1.29848 2.47224 152 158 110
-0.227642 -0.991498 2.96149 156 155 100
-0.288025 -1.0111 2.92941 94 92 74
-0.119487 -0.829934 2.9189 45 42 22
0.59882 -0.650737 2.20007 154 156 107
1.39384 -0.237069 1.14172 136 138 96
1.4374 -0.452523 2.55863 147 152 110
1.65822 0.644868 2.65898 34 32 12
-0.421083 -1.12691 2.90453 162 162 110
0.749222 -0.510392 2.4113 72 78 30
-0.0563822 -0.715598 2.79933 148 146 98
0.300796 -0.0957665 3.55689 44 46 23
0.596047 -0.676598 2.16601 66 71 20
0.596047 -0.676598 2.16601 66 71 20
0.375328 0.0921428 3.51955 79 46 20
0.428767 -0.49789 3.15825 74 78 49
0.500257 -0.206899 2.96686 72 70 41
0.455488 -0.514982 3.22706 155 158 105
0.619015 0.0315225 3.1045 38 42 16
0.6407 -0.308181 3.25147 47 57 24
0.74057 -0.232256 3.25268 47 56 21
0.727841 -0.930978 3.54162 68 79 36
0.997215 0.824202 2.78935 153 114 100
1.28455 1.69542 3.46599 76 28 13
1.29336 1.36088 3.18075 114 90 87
1.34213 1.73991 3.52556 138 93 79
1.37658 1.75312 3.52609 154 118 111
1.32486 0.24225 3.39929 71 74 64
1.55318 1.20116 3.14764 124 106 106
1.54946 0.615133 2.80034 38 14 4
1.6508 -0.181476 3.03717 54 62 44
1.79267 -0.0854852 3.99142 144 146 112
1.87158 0.483309 3.0812 118 82 59
2.00615 0.108374 3.49542 146 153 117
2.1957 -0.191173 3.48236 154 162 118
1.97853 -0.330535 0.950362 159 166 114
-0.0438847 -0.855309 3.02776 68 67 36
-0.0362498 -0.856779 3.05355 144 144 100
0.351785 0.406787 3.03366 74 44 27
0.484361 -0.714275 2.51651 143 147 98
0.423663 -0.519375 3.21579 152 154 108
1.02865 0.211654 3.25775 32 12 4
1.18404 0.695191 2.65232 165 116 90
1.56553 0.671298 2.7469 68 31 19
1.5884 1.69291 3.68939 68 32 32
1.6663 0.878137 3.03435 26 3 2
1.71735 1.4201 3.50491 53 26 22
1.80902 0.504995 3.02239 52 26 14
1.97873 -0.120232 3.54907 140 155 113
2.2126 -0.205553 3.43233 145 162 116
2.47727 -0.923808 2.72321 69 66 40
0.690804 -0.205113 3.14093 83 85 58
1.12301 0.761173 2.67822 87 33 14
1.0661 1.60003 3.47107 62 22 14
1.12832 0.315434 3.11601 63 68 53
1.5344 1.12846 3.09373 49 16 10
1.54825 1.37956 3.27684 125 98 98
1.56133 0.991327 2.99329 120 102 98
2.21382 0.678324 4.08409 151 150 139
0.646803 -1.09567 3.68638 152 152 100
1.04062 0.327487 3.28197 54 58 44
0.444407 -0.123312 2.72872 150 147 90
1.64701 0.632199 2.64298 32 34 14
-0.107104 -0.821392 2.94185 44 48 24
0.453105 -0.484299 3.15131 70 73 38
1.35517 1.72747 3.46787 139 94 83
2.2621 -0.349331 3.43599 91 89 52
-0.0652086 -0.832024 3.00533 39 42 16
0.769658 1.14275 1.52881 156 146 132
0.737159 -0.551615 2.40147 73 79 30
0.735733 -0.259248 3.29283 52 60 24
1.60524 0.633599 2.73393 133 107 96
1.71694 1.41825 3.49987 54 24 22
1.1717 0.257128 3.5162 134 134 132
1.67205 0.324895 3.39429 18 12 7
0.228529 0.238393 3.04272 146 141 78
0.257497 0.117458 3.20616 92 64 40
0.260588 0.0394338 3.60871 51 32 15
0.874218 0.650214 2.83309 43 17 7
0.545327 -0.859259 3.49474 152 152 100
0.669239 -1.09361 3.64711 151 154 100
1.2625 0.655785 2.75704 44 17 6
1.27515 0.899561 2.86052 45 16 12
1.27668 1.3787 3.17641 56 12 4
1.29431 1.36319 3.18242 120 94 90
1.29548 1.36184 3.17812 120 94 90
1.33065 1.54818 3.31486 58 19 12
1.36129 0.579616 2.63768 20 10 6
1.37432 0.541431 2.83658 16 8 6
1.49456 1.67871 3.56706 56 20 17
1.54621 1.11721 3.05238 45 16 10
1.55815 0.660987 2.63646 146 102 80
1.52953 0.608765 2.78282 44 18 6
1.55875 1.22978 3.14255 120 102 100
1.56222 1.10687 3.06239 124 98 94
1.57132 0.996427 3.03646 39 17 13
1.64951 0.628024 2.62453 31 32 12
1.83779 1.58188 3.85154 76 48 42
1.68446 -0.22182 3.01442 45 52 38
1.80444 0.527974 2.97756 120 89 72
1.8632 0.721292 3.07914 118 100 98
1.87313 0.729658 3.11083 32 11 7
1.96611 0.453019 3.11587 93 50 22
1.98318 0.533843 3.06825 54 22 11
2.17827 -0.748052 2.82865 42 54 28
2.50708 -0.957801 2.69477 64 62 32
2.55306 -1.00416 2.64902 154 162 110
1.43249 1.6997 3.39967 128 91 84
1.55827 1.23027 3.14284 116 100 95
1.57576 1.1903 3.12917 48 20 16
0.859845 0.607899 2.05289 60 65 31
1.03945 0.206178 3.19546 27 22 10
1.24809 0.657337 2.7479 94 65 52
1.26245 0.715975 2.76169 68 29 11
1.55421 1.37757 3.25003 116 96 90
1.55934 1.19912 3.1242 118 100 96
1.65078 0.661695 2.5873 157 122 106
1.77119 1.559 3.6508 132 112 113
1.78452 1.37934 3.48858 37 14 12
1.81769 1.36261 3.51804 38 8 4
1.84378 0.478263 3.01666 32 12 6
1.90286 0.593616 2.96219 150 123 115
-1.0281 0.488637 3.48794 94 92 42
-0.208407 -0.936983 2.94264 80 81 60
1.91725 -1.51571 3.47103 158 164 116
-2.85852 0.710253 6.43098 95 94 40
0.590229 -0.275602 3.14658 85 84 60
0.990649 0.826418 2.81335 162 114 100
1.02884 1.41928 3.31294 66 24 16
1.2586 1.11944 2.99485 54 16 7
0.290221 0.106604 3.26469 151 143 84
0.290221 0.106604 3.26469 151 143 84
0.386505 -1.17441 3.70481 144 144 92
0.0574429 0.651167 1.90847 50 50 30
0.866759 0.873953 1.75359 102 102 76
0.586828 -0.700374 2.19669 151 151 98
0.485112 -0.455232 3.22701 66 70 40
0.762817 1.01823 3.15572 106 66 50
0.747994 1.17299 3.27469 65 24 16
0.726582 1.39203 3.55201 95 48 28
0.783639 1.31345 3.43337 48 12 5
1.06913 0.592387 2.837 12 7 6
1.12211 0.562262 2.7488 78 48 40
1.0836 -0.0847874 2.88075 116 110 66
1.24764 0.533521 2.6391 66 42 34
1.26994 1.5584 3.33911 50 17 12
1.26994 1.5584 3.33911 50 17 12
1.33243 1.73172 3.48464 72 34 27
1.19888 0.264918 3.35255 112 112 110
1.28024 -0.666312 3.68315 44 52 16
1.67207 1.66134 3.63724 61 36 34
1.73254 1.53367 3.54918 127 100 98
1.58038 -0.157138 3.00534 76 80 66
1.40887 -0.779854 3.66129 45 62 26
1.49511 -0.421658 3.47307 157 166 114
1.77154 1.20703 3.33955 44 18 17
1.78464 1.20695 3.35131 131 109 108
1.78464 1.20695 3.35131 131 109 108
1.65881 -0.183685 3.01812 50 58 47
1.89139 0.62493 2.92846 147 118 114
1.87801 0.513495 2.98409 48 24 7
1.86549 0.459951 3.12147 27 10 5
1.99196 0.656073 3.12646 84 64 56
1.85237 -0.448717 2.90094 82 88 68
1.85237 -0.448717 2.90094 82 88 68
1.99253 0.569521 3.17788 132 96 88
1.73792 -1.32512 3.35074 52 66 21
2.01768 0.80012 3.83621 50 27 10
2.04286 0.741545 3.98242 150 147 134
2.05331 -0.587756 2.90344 55 66 40
2.11635 -0.208245 3.55423 33 30 3
2.15514 -0.326053 3.57204 146 156 112
0.0120156 0.729409 1.74881 59 56 37
0.804016 0.997407 1.6706 60 67 42
0.91809 1.07731 1.70865 56 56 28
0.877233 0.763244 1.89261 62 70 44
1.55462 1.53915 3.35575 120 99 96
-0.0220369 -0.750393 3.02117 52 54 31
1.28305 1.10358 2.97391 127 97 90
1.18004 0.312608 3.12135 33 38 22
1.40601 1.72014 3.40131 146 112 105
1.5614 0.651067 2.62273 150 104 82
1.62146 1.68079 3.51767 139 117 118
1.65794 1.64888 3.59792 132 107 103
1.85589 0.826551 3.16402 34 12 7
1.96375 -0.51229 2.95977 56 64 44
2.11697 -0.256831 3.49402 148 160 118
2.00417 1.1027 3.93555 138 134 124
2.0277 -1.0181 3.70231 150 156 106
0.845711 0.853973 1.82762 66 72 45
0.881125 0.607991 2.03895 64 68 36
0.317501 -0.587244 3.14757 60 66 28
0.585985 0.863332 3.16419 156 144 120
0.584759 1.1984 3.51065 152 136 114
0.644697 -0.129071 3.01301 46 50 22
0.754407 1.31594 3.4884 56 17 4
0.992716 0.82595 2.80956 158 110 97
0.900198 -0.0233031 2.78827 54 56 26
0.991626 -0.279817 2.84076 153 152 100
1.26044 0.806699 2.78346 89 56 52
1.28122 0.707133 2.71094 84 45 26
1.26792 0.528359 2.77942 14 6 3
1.006 0.216786 3.36487 26 18 4
1.30768 1.11579 2.9886 52 20 16
1.28458 1.54824 3.29665 42 12 2
1.33116 1.66856 3.38828 132 92 82
1.33568 1.72525 3.46725 76 39 30
1.2237 0.154676 3.19071 59 66 54
1.41615 -0.145813 2.47742 88 94 82
1.23998 0.286007 3.26981 54 66 50
1.53511 1.01203 3.00589 38 16 12
1.53759 1.25197 3.16516 46 12 6
1.57134 0.789559 2.86292 114 92 86
1.29803 -0.549501 3.56967 50 57 24
1.25438 -0.0270661 4.30952 168 155 122
1.83786 0.931927 3.22049 40 17 12
1.83735 0.751002 3.09415 24 4 2
1.85975 0.610574 2.90812 72 31 23
1.8454 1.57047 3.92193 48 22 15
1.8901 0.551256 2.94375 160 138 134
1.86616 0.456601 3.12904 34 10 4
1.91939 0.91719 3.41621 26 6 2
1.92049 0.916537 3.4103 26 6 2
1.95729 0.414803 3.11553 108 64 36
1.95516 1.12778 3.93072 47 16 5
2.01952 0.557148 3.1766 85 54 46
2.18012 -0.745972 2.81736 40 52 25
-0.149494 -0.837409 2.92875 106 101 82
0.830187 0.688948 1.9788 160 151 130
0.739401 1.28136 3.40163 145 132 110
0.99021 0.850963 2.69011 66 28 16
0.977479 1.08183 3.03789 16 6 5
0.879799 1.61657 3.58442 134 106 93
0.650763 -0.680667 3.40958 152 152 102
1.00018 1.63126 3.50576 48 16 10
1.37794 0.682674 2.70528 130 84 62
1.21652 0.267713 3.30289 92 96 90
1.5419 0.910813 2.92258 34 14 10
1.35022 0.0771839 3.11136 77 84 72
1.51156 1.74246 3.53161 74 34 24
1.60478 0.713424 2.78811 34 8 2
1.26345 -0.515246 3.56366 152 160 108
1.75136 1.61155 3.65532 72 46 42
1.78871 0.58772 2.85198 150 129 124
1.56675 -0.396491 3.18729 154 162 114
1.84004 0.750131 3.08089 24 4 0
1.91407 0.930525 3.32816 36 9 4
1.79972 -0.331761 2.9941 54 61 36
1.92363 0.335393 3.09831 20 10 6
1.85371 -0.446074 2.87466 88 92 72
1.95369 0.418025 3.12332 106 64 34
1.99984 0.359383 3.1467 106 62 47
2.05386 0.436202 3.19594 66 42 24
2.1703 -0.0159666 3.19903 120 82 60
2.11741 -0.203983 3.49202 36 35 4
2.55533 -0.944276 2.72862 160 164 114
0.98612 0.951899 1.78002 50 51 26
0.35617 -1.18874 3.76106 151 150 94
1.72888 -0.319423 2.95437 85 90 68
1.78907 -0.381104 2.91096 80 86 66
1.9796 0.416378 3.12822 154 110 96
1.78774 -0.0606365 3.93019 58 34 14
1.98796 0.291213 3.10914 111 63 36
2.00108 0.362951 3.14384 108 62 46
2.01522 0.371414 3.14384 174 132 122
1.92511 -0.516417 2.85901 70 76 52
1.91819 -0.597667 2.92601 73 79 41
2.0134 0.924981 3.99551 146 144 134
1.99065 0.0314463 3.41973 58 54 26
2.14309 0.064704 3.14986 160 130 114
2.36006 -0.737672 2.45388 75 76 49
1.97625 -0.62058 2.83062 74 77 39
1.0967 1.6881 11.4405 112 114 90
0.746819 0.736242 2.09995 65 69 40
-0.118524 -0.94341 2.91914 154 151 96
-0.00314059 -0.212239 3.41281 154 150 94
0.661007 0.83736 2.82188 161 150 130
0.287901 0.0200363 3.24295 73 48 23
0.606559 0.947097 3.17803 158 145 126
1.18345 0.753327 2.70976 162 111 84
1.38438 -0.390757 2.03189 102 98 55
1.18121 0.662492 2.80243 48 12 5
0.382237 -1.30291 3.69197 148 147 94
1.30737 0.594234 2.78528 25 9 4
1.31992 1.37376 3.16966 48 11 5
1.322 1.70366 3.39453 138 96 82
1.47526 0.682047 2.8003 154 106 82
1.23727 0.153414 3.17476 56 61 50
1.22642 0.271837 3.2865 84 86 77
1.22642 0.271837 3.2865 84 86 77
1.25642 0.340976 3.27878 103 102 94
1.54071 1.24987 3.14576 45 11 4
1.75866 0.55725 2.74197 128 101 91
1.75574 0.618254 2.78512 140 110 100
1.68832 1.64828 3.60033 54 28 23
1.73135 1.62714 3.60664 62 45 38
1.7432 1.56742 3.56255 115 98 98
1.78061 1.21183 3.37279 122 103 100
1.31733 -0.0211227 4.12224 164 156 118
1.31733 -0.0211227 4.12224 164 156 118
1.32731 -0.0425058 4.09809 99 72 36
1.81685 0.936853 3.22242 116 98 93
1.83299 0.831043 3.17705 106 84 82
1.84823 0.565623 3.08979 152 130 123
1.71566 -0.397639 2.99888 80 82 42
1.8599 0.519169 3.04301 80 51 28
1.84957 1.42349 3.81517 64 26 19
1.87268 1.53744 3.80305 50 22 14
1.94699 0.418941 3.14392 105 61 38
1.92101 1.32378 3.96838 50 20 9
1.98538 0.382262 3.20572 152 106 90
1.99007 0.295499 3.17248 172 127 114
1.9946 0.180687 3.16736 129 88 67
1.97185 1.1136 3.85351 37 12 4
1.98711 1.27174 3.9152 127 126 120
2.03411 0.140519 3.1168 166 122 101
1.96883 0.949533 3.87051 32 14 9
2.07554 0.369816 3.35638 142 120 102
2.06945 0.462899 3.6299 54 31 22
2.12292 -0.747883 2.84151 58 64 32
2.15959 -0.125021 3.33807 138 104 83
2.13596 -0.227717 3.44771 56 56 17
2.22709 -0.311864 3.49506 80 81 43
2.25388 -0.375255 3.38648 71 66 30
2.25045 -0.376594 3.40223 74 69 32
0.47348 1.06711 2.20647 60 67 44
0.341768 0.413559 2.29786 50 50 24
0.885861 0.76171 2.00484 153 147 126
1.0615 1.58462 3.36558 54 19 11
1.58528 0.691772 2.74423 149 107 84
1.51276 1.61249 3.48701 98 73 68
1.7664 0.593135 2.85722 138 111 100
1.81274 0.618112 2.86284 72 34 26
2.00888 0.240288 3.06891 150 102 82
2.02582 0.678705 3.72519 37 16 8
0.950476 0.622185 1.99686 107 108 82
1.57313 -0.160562 3.02452 77 81 64
1.74746 1.52149 3.51281 124 96 94
1.15217 -0.985098 4.08242 78 88 42
1.64747 -0.172583 3.07541 60 64 46
1.58569 -0.412899 3.32092 78 78 44
1.73941 -0.28343 3.05449 45 54 30
1.92368 0.550112 2.96096 116 89 72
1.92368 0.550112 2.96096 116 89 72
1.51317 0.066034 3.98683 26 10 5
1.88627 0.471331 3.0756 118 85 62
1.6262 0.00800214 4.10014 124 108 92
2.01483 0.559141 3.18829 91 60 52
1.52555 -1.41086 3.83323 57 72 34
1.75892 -0.702292 3.62061 70 77 54
2.02643 0.79784 3.71643 34 18 8
1.38382 -0.568675 7.05681 152 162 114
2.27175 -0.371674 3.42594 144 154 110
0.833417 0.858023 1.84191 67 74 50
0.832771 0.772024 2.07867 155 150 127
0.924919 0.627649 2.03597 110 111 86
0.540931 0.259323 2.65811 78 72 30
1.24077 0.502759 2.72579 75 60 48
1.34212 0.690031 2.72409 110 64 35
1.41432 -0.223232 2.82673 157 160 108
1.49559 -0.0769988 3.05482 79 80 61
1.57529 -0.161891 3.02405 82 85 69
1.76925 0.543004 2.97144 120 94 75
1.72639 1.61039 3.57308 110 91 87
1.44888 -0.293233 3.42617 60 62 44
1.44459 -0.596026 3.47979 56 69 34
1.89772 0.383998 3.13909 23 12 2
1.85304 -0.372658 2.96194 65 68 50
1.91456 1.46654 3.75516 122 96 90
2.04944 0.227701 3.05731 117 76 62
2.018 0.803138 3.75389 32 17 9
2.01515 0.897319 3.90783 140 138 128
2.03966 0.769888 3.87435 144 140 126
2.27693 -0.366675 3.39011 148 157 113
2.59174 -1.01745 2.67603 34 44 16
-0.0198517 -0.219583 3.53402 152 148 88
0.27339 0.0584278 3.36377 74 60 30
1.26275 1.7507 3.457 93 43 26
1.44484 1.76021 3.48248 106 69 56
1.67249 1.63128 3.55198 130 108 106
1.56892 -0.162508 3.03912 81 86 70
1.71957 1.55379 3.54786 64 27 24
1.85225 0.717362 3.06716 46 19 12
1.72584 -0.322172 2.95646 82 85 64
1.88836 0.573839 2.98789 71 44 34
1.7819 -0.386011 2.93186 85 90 70
1.83191 -0.356271 2.97711 60 66 44
2.00042 0.529428 3.08322 142 106 94
1.96104 0.861719 3.49292 24 8 4
1.9575 1.13473 3.67083 52 19 9
1.97544 0.841159 3.50833 116 96 86
1.97544 0.841159 3.50833 116 96 86
2.02367 0.564132 3.22207 118 89 79
1.97758 0.954678 3.61038 24 10 5
1.51848 -1.42113 3.85526 57 72 33
1.87665 -0.0230713 3.74161 44 50 20
1.83142 -0.0822096 3.86378 150 155 117
1.8464 -0.0915066 3.96743 42 47 14
2.06979 -0.107779 3.42106 45 43 14
2.23219 -0.764753 2.76304 88 88 67
2.26913 -0.772673 2.79174 57 62 42
2.33052 -0.77882 2.68662 65 68 48
2.44232 -0.91875 2.70972 72 70 42
-0.267301 0.39195 3.17221 54 53 26
-0.319051 -0.964649 2.87802 64 62 34
0.800518 0.881936 1.80762 68 72 46
0.445182 0.313383 2.6434 27 30 18
0.254881 -0.0395389 3.31787 150 142 84
0.683486 0.963528 3.18668 74 34 16
0.855965 0.858099 2.90879 54 18 8
0.89715 0.951721 2.96563 110 72 65
0.99648 0.559588 2.82203 10 6 6
0.967853 1.0869 3.06253 15 6 2
0.959343 1.25894 3.18034 60 19 14
1.11995 0.555009 2.75122 66 36 28
1.01313 1.43675 3.33043 117 89 82
1.04881 1.592 3.4564 130 98 89
1.27941 0.885077 2.8373 42 14 10
1.22066 1.70479 3.42902 90 38 24
1.32073 1.37274 3.17094 50 13 4
1.36884 -0.0880279 2.63913 82 92 76
1.59956 -0.484804 1.99711 150 154 114
1.22281 0.26749 3.28946 86 90 82
1.54373 0.80678 2.87449 26 6 2
1.59048 1.10662 3.0677 42 19 16
1.56632 1.70008 3.57666 64 30 26
1.34792 0.322499 3.57983 9 5 4
1.79956 0.536107 2.63765 28 10 6
1.73623 1.53179 3.55705 129 103 102
1.26359 -0.014508 4.21187 56 40 19
1.27919 -0.0221986 4.24005 169 158 122
1.80893 0.501932 3.02185 44 24 12
1.79425 1.57807 3.69316 66 42 38
1.80034 1.55011 3.7096 120 102 102
1.84965 0.522422 2.98858 68 43 32
1.84749 0.501356 3.00798 146 121 114
1.94734 0.558593 3.1109 48 21 13
1.93651 1.00561 3.5986 31 17 12
1.97985 0.589263 3.21284 52 24 16
1.71342 -0.00553158 3.95648 56 47 21
2.06999 0.412239 3.1844 156 132 118
2.01013 0.900852 3.9396 142 142 130
1.5783 -1.86185 3.95729 156 159 108
2.18483 -0.19732 3.41261 60 55 18
1.28583 1.20307 3.05453 122 82 72
1.75308 1.39558 3.49167 130 110 108
1.75308 1.39558 3.49167 130 110 108
0.416027 1.03903 3.68065 154 140 114
-0.319328 -0.984849 2.87899 103 101 82
-0.352261 -1.0763 2.93295 157 157 110
-0.0537815 -0.871864 3.02347 152 152 105
1.29584 1.33298 3.15235 128 102 98
2.08119 -0.601951 2.83277 46 56 32
-0.265831 -0.997282 2.94308 94 90 64
-0.320129 -0.985865 2.88022 106 106 88
