ply
format ascii 1.0
element vertex 342
property float x
property float y
property float z
property uchar red
property uchar green
property uchar blue
end_header
0.480143 0.0501386 2.10985 0 255 0
0.49447 0.106364 2.08323 0 255 0
0.576067 0.104914 2.0575 0 255 0
0.645428 0.0992947 2.03536 0 255 0
0.737629 0.0962868 2.02302 0 255 0
0.827933 0.0971488 2.01612 0 255 0
0.912466 0.0943736 2.02203 0 255 0
0.987987 0.0819652 2.04533 0 255 0
1.07195 0.0756103 2.08389 0 255 0
1.1008 0.0650358 2.09732 0 255 0
1.07058 0.130671 2.08787 0 255 0
1.0003 0.14881 2.08484 0 255 0
0.906501 0.148714 2.06185 0 255 0
0.820159 0.14785 2.02914 0 255 0
0.863679 0.215157 2.0592 0 255 0
0.454321 -0.105701 2.84435 110 112 90
0.455446 -0.0815281 2.84613 224 223 174
0.471171 -0.0786844 2.84312 110 106 74
0.479502 -0.0877147 2.84964 166 163 138
0.488995 -0.076239 2.85911 118 119 96
0.489145 -0.0759658 2.85741 118 119 96
0.489601 -0.0890607 2.86066 128 127 92
0.498859 -0.0854688 2.86599 144 144 103
0.529228 0.055829 2.94136 80 72 47
0.547011 -0.0128227 2.85947 116 114 94
0.58064 -0.00138774 2.87569 166 166 145
0.643133 0.375298 2.98714 74 30 18
0.596335 -0.0674698 2.70971 218 222 175
0.642145 -0.0459624 2.91983 176 183 145
0.772342 0.220496 2.83035 50 25 18
0.783068 0.218058 2.8321 48 22 15
0.850775 -0.216317 2.9412 144 148 110
0.854228 0.278765 2.74901 228 214 205
0.858018 0.233745 2.7239 130 118 84
0.863811 0.269015 2.72392 222 216 212
0.978117 -0.108195 2.79314 191 194 146
0.427669 0.0430749 2.98811 180 170 115
0.936845 -0.0986244 2.8145 82 80 48
0.82513 0.359599 3.08249 62 28 21
0.431846 -0.122042 2.83399 148 145 126
0.508831 0.142983 2.69136 197 192 174
0.516667 0.139701 2.69764 193 191 168
0.873185 0.136395 2.8863 134 140 104
0.871949 0.107066 2.86185 216 186 178
0.466684 -0.108688 2.85457 126 124 86
0.516851 0.136411 2.70541 116 116 70
0.600018 0.0146109 2.88105 140 138 115
0.783854 0.191167 2.80663 120 97 90
0.87061 0.102707 2.8664 129 86 67
0.577978 0.179177 2.85913 101 58 32
0.599117 -0.158881 2.99684 188 190 143
0.721664 0.201377 2.8044 106 70 60
0.973775 -0.12426 2.79855 190 193 142
0.415148 -0.148104 2.83688 169 170 115
0.435793 -0.132055 2.84523 167 166 114
0.440281 -0.128316 2.85003 166 166 116
0.452287 -0.112859 2.84536 102 104 84
0.525391 -0.0700809 2.87478 165 166 112
0.590969 0.195292 2.87347 64 22 4
0.615547 0.282916 2.59112 152 140 130
0.673584 0.33281 2.91295 78 28 18
0.704031 0.211791 2.78958 79 36 24
0.716637 0.2365 2.82552 44 14 7
0.721676 0.274933 2.85084 124 102 96
0.712966 0.190907 2.80626 40 14 8
0.720569 0.25509 2.83774 122 101 94
0.73846 0.111344 2.92988 14 6 2
0.753892 0.364938 2.92483 112 71 75
0.770509 0.27966 2.86475 46 12 7
0.768133 0.0553288 2.86199 112 115 102
0.774832 0.277042 2.86547 119 94 90
0.826553 0.0553452 3.02468 164 168 134
0.826553 0.0553452 3.02468 164 168 134
0.844332 0.15036 2.87918 148 102 82
0.437743 -0.129267 2.84711 109 108 73
0.437743 -0.129267 2.84711 109 108 73
0.460662 -0.0947995 2.84084 112 109 85
0.590978 -0.139282 2.97498 108 113 80
0.724923 0.322376 2.88329 118 95 92
0.785106 -0.282945 3.03496 166 168 118
0.596901 0.120758 2.78481 89 91 74
0.714262 0.176244 2.77828 21 7 2
0.423326 -0.132137 2.83505 44 50 28
0.467985 -0.0894873 2.84353 110 104 85
0.515405 0.058195 2.93821 150 148 94
0.544924 0.0602662 2.94163 42 39 20
0.629162 -0.11855 2.9707 155 160 110
0.641503 -0.0854348 2.94578 68 82 38
0.64799 0.032343 2.91609 56 62 24
0.662031 0.183221 2.66854 114 117 96
0.669562 -0.0350854 2.91726 73 85 38
0.678725 0.366148 2.93874 124 92 85
0.693081 0.260003 2.8484 32 4 1
0.704115 0.197547 2.79448 170 120 93
0.722899 0.293377 2.86422 107 65 58
0.720859 0.195132 2.79513 164 142 140
0.742235 0.392657 2.94038 142 106 102
0.760908 0.399952 2.95065 94 62 58
0.77042 0.363719 2.92901 124 98 96
0.77231 0.331726 2.90437 125 94 95
0.770217 0.303542 2.88415 44 16 9
0.772421 0.220289 2.83025 25 8 4
0.81958 0.0564944 3.02841 154 164 122
0.818982 0.0112893 2.85719 48 61 38
0.831152 0.164024 2.85358 136 112 99
0.85576 0.276881 2.75219 79 46 26
0.561218 -0.196634 3.02745 73 78 43
0.689665 0.211433 2.81046 89 34 14
0.716516 0.211669 2.80522 66 29 20
0.423261 -0.132245 2.83513 42 48 24
0.508846 -0.083236 2.86699 153 151 92
0.514164 -0.0714502 2.86817 48 56 26
0.864715 0.288557 3.02481 150 143 131
0.840242 -0.211457 2.93564 156 164 112
0.376435 -0.176734 2.84067 156 156 102
0.404276 0.14759 2.86646 87 86 34
0.41335 -0.144985 2.83877 50 54 23
0.425927 -0.140738 2.83042 156 154 100
0.435334 -0.114172 2.8348 73 68 45
0.440216 -0.111802 2.8405 46 48 24
0.534749 -0.0203827 2.84622 75 72 43
0.539328 0.0858914 2.89462 79 54 30
0.549301 0.102814 2.87736 148 146 92
0.562603 0.179238 2.86916 95 50 22
0.570223 0.179643 2.87355 92 48 18
0.577179 -0.17424 3.00147 59 71 36
0.574245 -0.187344 3.01867 159 159 106
0.633205 0.375999 2.99468 132 98 81
0.672196 0.185836 2.68917 170 118 91
0.657709 0.303426 2.89415 50 15 6
0.662158 0.269986 2.86776 16 8 6
0.662922 0.300415 2.88934 126 102 96
0.670593 0.333519 2.91387 125 95 88
0.71136 0.218591 2.80795 66 28 22
0.716914 0.256113 2.83857 46 14 6
0.717747 0.167682 2.78519 75 49 38
0.719645 0.235361 2.82517 116 96 90
0.721728 0.274917 2.85075 124 94 90
0.720061 0.167331 2.78591 40 14 2
0.723019 0.293237 2.86371 108 65 58
0.722145 0.175459 2.77287 92 60 47
0.728132 0.325979 2.88814 52 14 8
0.725316 0.187127 2.80016 38 14 10
0.752306 0.366266 2.88761 65 22 18
0.741593 0.126026 2.94745 10 6 4
0.79386 0.380344 2.968 74 42 36
0.789107 0.0831141 3.03309 25 10 4
0.786616 0.212533 2.82337 58 28 26
0.808829 0.370875 2.97846 82 56 54
0.792102 0.15259 2.83827 56 50 34
0.811224 0.0607419 3.05108 142 160 117
0.79251 -0.00970394 2.62372 76 78 64
0.841002 0.181064 2.84699 163 136 126
0.852886 0.154832 2.87484 80 35 8
0.852969 0.154705 2.87447 80 35 8
0.851135 -0.0467891 2.85261 62 64 28
0.855392 0.276385 2.74905 86 52 30
0.916727 -0.090968 2.81379 160 164 113
1.00359 -0.166596 2.75669 64 72 42
1.00382 -0.199917 2.75205 70 74 32
1.0036 -0.199595 2.75128 70 74 32
0.413841 -0.126262 2.83877 149 148 95
0.441783 -0.099598 2.83887 146 146 88
0.447858 -0.114418 2.84279 105 102 88
0.649651 -0.0344317 2.91518 102 110 74
1.00572 -0.170099 2.75155 152 158 110
0.448395 -0.122959 2.85062 156 155 100
0.413043 -0.148723 2.83988 162 162 110
0.57 -0.019201 3.0062 52 60 27
0.478126 -0.0714508 2.8208 148 146 98
0.5474 0.0474069 2.9542 44 46 23
0.594725 -0.0654732 2.70989 66 71 20
0.594725 -0.0654732 2.70989 66 71 20
0.560161 0.0825275 2.94785 79 46 20
0.569758 -0.0283602 2.88523 74 78 49
0.580495 0.0257079 2.85208 72 70 41
0.575294 -0.0312251 2.89719 155 158 105
0.602735 0.071193 2.87602 38 42 16
0.609226 0.00816832 2.90086 47 57 24
0.62744 0.0225511 2.90175 47 56 21
0.629629 -0.106625 2.9515 68 79 36
0.668913 0.22142 2.81867 153 114 100
0.723533 0.383924 2.93082 76 28 13
0.724901 0.322547 2.88318 114 90 87
0.734384 0.392103 2.94031 138 93 79
0.740744 0.394611 2.94002 154 118 111
0.735771 0.113724 2.92474 71 74 64
0.773938 0.293577 2.87615 124 106 106
0.773905 0.183971 2.81813 38 14 4
0.796855 0.0346635 2.8616 54 62 44
0.826357 0.0555902 3.02428 144 146 112
0.835959 0.16047 2.86541 118 82 59
0.863751 0.0913866 2.93762 146 153 117
0.90017 0.0361731 2.93523 154 162 118
0.852981 0.000910052 2.48349 159 166 114
0.48146 -0.0971783 2.86448 68 67 36
0.48302 -0.0973629 2.86916 144 144 100
0.551402 0.140796 2.86201 74 44 27
0.578314 -0.0696381 2.76835 143 147 98
0.679114 0.107012 2.90371 32 12 4
0.704743 0.197779 2.79086 165 116 90
0.776641 0.194786 2.80743 68 31 19
0.781283 0.381247 2.96191 68 32 32
0.796064 0.233229 2.85445 26 3 2
0.805174 0.332927 2.93349 53 26 22
0.823599 0.164811 2.85763 52 26 14
0.859079 0.0492992 2.95231 140 155 113
0.902692 0.0342487 2.93106 145 162 116
0.953763 -0.101224 2.8039 69 66 40
0.617342 0.0278477 2.88205 83 85 58
0.692991 0.209946 2.79586 87 33 14
0.6832 0.364894 2.93338 62 22 14
0.697237 0.126826 2.876 63 68 53
0.770624 0.279685 2.86703 49 16 10
0.772632 0.326782 2.90053 125 98 98
0.775353 0.254849 2.85242 120 102 98
0.901075 0.197741 3.03482 151 150 139
0.614277 -0.138637 2.98368 152 152 100
0.569087 0.0412669 2.80707 150 147 90
0.469546 -0.0909455 2.84762 44 48 24
0.573907 -0.0253538 2.88493 70 73 38
0.735379 0.39136 2.93787 139 94 83
0.477448 -0.0930811 2.86005 39 42 16
0.618261 0.281638 2.58952 156 146 132
0.622261 -0.0399907 2.75331 73 79 30
0.626106 0.0176798 2.91136 52 60 24
0.784123 0.187834 2.80528 133 107 96
0.805198 0.332568 2.9319 54 24 22
0.527994 0.108952 2.866 146 141 78
0.536387 0.0866024 2.89189 92 64 40
0.53909 0.0725502 2.96429 51 32 15
0.647786 0.188287 2.82358 43 17 7
0.593833 -0.0941646 2.94753 152 152 100
0.618633 -0.136938 2.97429 151 154 100
0.719981 0.190857 2.8098 44 17 6
0.721889 0.236451 2.82775 45 16 12
0.720733 0.326262 2.88605 56 12 4
0.723811 0.323825 2.88812 120 94 90
0.724814 0.322647 2.88437 120 94 90
0.730345 0.358247 2.91158 58 19 12
0.738811 0.176775 2.78664 20 10 6
0.741585 0.170036 2.82437 16 8 6
0.761015 0.378695 2.95239 60 22 19
0.761769 0.381853 2.95317 56 20 17
0.771823 0.278568 2.86355 45 16 10
0.775714 0.192601 2.78489 146 102 80
0.770627 0.182956 2.81277 44 18 6
0.773608 0.299833 2.88132 120 102 100
0.774507 0.276935 2.86718 124 98 94
0.777223 0.255772 2.85931 39 17 13
0.779507 0.238274 2.84651 27 10 6
0.792239 0.187285 2.7854 31 32 12
0.826557 0.36481 3.00328 76 48 42
0.803134 0.0286986 2.85626 45 52 38
0.822428 0.169225 2.84949 120 89 72
0.832763 0.205697 2.86821 118 100 98
0.834487 0.207405 2.87524 32 11 7
0.82671 0.055757 3.02366 133 136 105
0.82671 0.055757 3.02366 133 136 105
0.853042 0.155943 2.87617 93 50 22
0.856003 0.171063 2.8659 54 22 11
0.897155 -0.0680624 2.82336 42 54 28
0.95938 -0.106106 2.79801 64 62 32
0.96812 -0.114666 2.78953 154 162 110
0.748467 0.387388 2.92966 128 91 84
0.773633 0.299832 2.88131 116 100 95
0.776973 0.292554 2.87899 48 20 16
0.643974 0.17983 2.67851 60 65 31
0.71723 0.191232 2.80845 94 65 52
0.7197 0.202203 2.81093 68 29 11
0.772182 0.327733 2.90259 116 96 90
0.773789 0.294205 2.87836 118 100 96
0.792797 0.193144 2.77633 157 122 106
0.812598 0.363537 2.97913 132 112 113
0.815662 0.329548 2.94808 37 14 12
0.821989 0.326575 2.95364 38 8 4
0.821324 0.32728 2.95583 38 8 4
0.82983 0.160192 2.85803 32 12 6
0.840403 0.181956 2.84728 150 123 115
0.290514 0.15139 2.95391 94 92 42
0.451972 -0.112662 2.84662 80 81 60
0.852249 -0.212686 2.94339 158 164 116
-0.0348182 0.187527 3.48628 95 94 40
0.599202 0.0143645 2.88252 85 84 60
0.668847 0.221612 2.81942 162 114 100
0.674696 0.332885 2.91133 66 24 16
0.718065 0.277655 2.85271 54 16 7
0.772428 0.331457 2.90388 120 100 96
0.775306 0.254792 2.85195 116 100 97
0.541814 0.0849626 2.90445 151 143 84
0.541814 0.0849626 2.90445 151 143 84
0.565628 -0.153442 2.9875 144 144 92
0.823804 0.0505691 3.0222 146 158 119
0.492649 0.184636 2.65329 50 50 30
0.643372 0.229331 2.62209 102 102 76
0.597925 -0.0660836 2.70682 151 151 98
0.580948 -0.0192444 2.89647 66 70 40
0.627217 0.256355 2.88036 106 66 50
0.623953 0.285265 2.90273 65 24 16
0.620438 0.325599 2.95158 95 48 28
0.630843 0.311336 2.93044 48 12 5
0.6848 0.178152 2.82278 12 7 6
0.694492 0.172704 2.80682 78 48 40
0.690064 0.0517701 2.83209 116 110 66
0.717728 0.167773 2.78666 66 42 34
0.720031 0.358817 2.91231 50 17 12
0.720031 0.358817 2.91231 50 17 12
0.731515 0.390979 2.93768 72 34 27
0.71167 0.11795 2.917 112 112 110
0.761847 0.397617 2.95696 84 48 36
0.781866 -0.0166737 2.60536 157 158 113
0.786892 -0.0193595 2.59432 154 156 110
0.776346 0.195095 2.80953 55 20 10
0.776388 0.236991 2.83955 120 96 94
0.797822 -0.0216837 2.56947 150 154 106
0.731367 -0.0545877 2.97748 44 52 16
0.795128 0.379346 2.96545 61 36 34
0.806576 0.356093 2.95021 127 100 98
0.783566 0.0404291 2.85332 76 80 66
0.755735 -0.0751484 2.97299 45 62 26
0.769737 -0.00866762 2.93948 157 166 114
0.81455 0.295711 2.91322 44 18 17
0.817011 0.295756 2.91538 131 109 108
0.817011 0.295756 2.91538 131 109 108
0.798344 0.0358112 2.85543 50 58 47
0.838246 0.187592 2.8392 147 118 114
0.836173 0.166768 2.85124 48 24 7
0.834486 0.156773 2.87441 27 10 5
0.823208 0.0530052 3.03383 58 57 26
0.857279 0.193939 2.87571 84 64 56
0.835267 -0.0129835 2.8336 82 88 68
0.835267 -0.0129835 2.8336 82 88 68
0.857845 0.177782 2.88489 132 96 88
0.818586 -0.175134 2.91419 52 66 21
0.862961 0.221056 3.0037 50 27 10
0.868155 0.210314 3.03015 150 147 134
0.866435 0.122594 2.88086 178 144 142
0.866435 0.122594 2.88086 178 144 142
0.873324 -0.0380429 2.83339 55 66 40
0.82006 0.155388 2.2216 156 153 119
0.462087 -0.0940055 2.84464 106 101 82
0.429372 -0.123378 2.83843 106 106 88
