ply
format ascii 1.0
element vertex 897
property float x
property float y
property float z
property uchar red
property uchar green
property uchar blue
end_header
0.434184 -0.143674 0.832799 0 255 0
0.507593 -0.153282 0.812574 0 255 0
0.336417 -0.172811 0.86083 0 255 0
0.344137 -0.209725 0.832925 0 255 0
0.408033 -0.148722 0.812991 0 255 0
0.537318 -0.154677 0.788358 0 255 0
0.565432 -0.158988 0.780508 0 255 0
0.530082 -0.163615 0.766021 0 255 0
0.445075 -0.175175 0.833183 0 255 0
0.631039 -0.164138 1.40777 99 82 64
0.674765 -0.212584 1.3582 66 40 32
0.61915 -0.265415 1.33054 132 94 73
0.689469 -0.13269 1.38053 156 130 120
0.711126 -0.177423 1.39104 104 84 61
0.656764 -0.250787 1.37732 113 92 78
0.262489 -0.217549 1.37918 141 108 90
0.610195 -0.284666 1.33173 132 113 100
0.623547 -0.287728 1.31062 103 30 12
0.675253 -0.259084 1.30768 146 129 122
0.643575 -0.120561 1.4256 212 192 184
0.471381 -0.0884681 1.33298 125 50 46
0.693185 -0.122956 1.38106 140 106 92
0.386187 -0.199591 1.35684 126 74 58
0.694609 -0.173587 1.39117 124 97 76
0.460048 -0.12328 1.32747 132 42 36
0.393901 -0.288325 1.38828 104 42 22
0.709341 -0.161321 1.39184 81 65 52
0.659515 -0.213083 1.36602 66 51 44
0.628654 -0.264643 1.41192 131 109 64
0.270023 -0.120488 1.40342 114 71 40
0.616525 -0.271529 1.33094 108 73 49
0.61069 -0.183377 1.43927 50 34 18
0.268049 -0.205272 1.38674 126 96 82
0.649715 -0.172256 1.38383 112 81 62
0.740338 -0.158584 1.42263 121 85 55
0.61093 -0.205418 1.42257 210 180 156
0.722597 -0.130895 1.40143 146 108 88
0.700628 -0.161707 1.38785 101 84 68
0.381962 -0.194775 1.35641 146 90 74
0.632191 -0.281962 1.30285 140 106 91
0.470312 -0.0798437 1.35242 232 200 196
0.225756 -0.0801341 1.30932 160 50 34
0.397167 -0.302643 1.39064 82 44 30
0.615016 -0.134473 1.39909 156 128 122
0.638565 -0.106964 1.39127 128 100 95
0.370766 -0.189951 1.36708 82 41 24
0.644345 -0.120239 1.38496 154 119 105
0.632673 -0.158427 1.39874 122 101 82
0.627283 -0.282182 1.30667 137 98 78
0.650137 -0.106428 1.38591 122 65 56
0.694981 -0.116549 1.38698 94 67 55
0.362211 -0.125052 1.42566 71 35 28
0.659201 -0.26961 1.2967 145 124 115
0.471194 -0.112401 1.32895 130 36 32
0.644063 -0.159404 1.40272 116 90 76
0.697483 -0.132122 1.3798 152 112 98
0.354756 -0.186123 1.34902 142 92 76
0.352757 -0.19048 1.34073 124 68 54
0.656219 -0.244982 1.38061 112 106 90
0.262601 -0.231339 1.3758 112 82 72
0.297221 -0.239026 1.37044 128 72 44
0.641574 -0.254577 1.40897 172 146 112
0.239917 -0.0916941 1.32348 131 71 64
0.645258 -0.103391 1.39084 100 78 73
0.653832 -0.232761 1.38784 126 105 90
0.61577 -0.185086 1.42386 109 74 48
0.381416 -0.204068 1.35426 98 48 34
0.239946 -0.103871 1.30432 129 54 41
0.688893 -0.126403 1.38095 151 123 110
0.597133 -0.146124 1.42788 115 90 75
0.227084 -0.0861815 1.3077 164 60 47
0.662605 -0.125801 1.37961 165 136 124
0.681792 -0.283999 1.28752 80 52 32
0.664111 -0.172353 1.37448 63 43 31
0.605159 -0.317967 1.35896 126 104 74
0.698647 -0.255577 1.31298 124 106 94
0.2855 -0.163081 1.40227 157 110 85
0.717746 -0.114491 1.39865 121 103 86
0.390317 -0.19495 1.36508 121 72 51
0.625229 -0.114663 1.39813 120 88 82
0.594744 -0.155816 1.45481 120 106 82
0.674593 -0.218888 1.3595 100 60 42
0.703324 -0.216679 1.35762 118 92 73
0.687674 -0.101107 1.39531 151 124 113
0.65352 -0.24929 1.3931 110 112 68
0.649611 -0.112523 1.38155 128 32 20
0.467936 -0.142986 1.32361 104 28 22
0.690405 -0.10791 1.38897 74 56 50
0.602382 -0.289341 1.34515 137 118 97
0.26362 -0.121663 1.30081 102 46 46
0.691009 -0.261402 1.30549 137 29 22
0.610999 -0.279078 1.34002 120 98 87
0.318993 -0.248966 1.37994 78 38 10
0.378716 -0.24596 1.42515 150 106 74
0.659075 -0.11097 1.38031 116 40 37
0.349375 -0.243677 1.45423 98 78 38
0.626692 -0.268335 1.31683 110 40 32
0.619684 -0.273465 1.32432 112 34 26
0.653863 -0.262456 1.30453 218 198 190
0.706341 -0.1702 1.38281 77 51 32
0.63816 -0.181586 1.37251 166 108 80
0.61012 -0.291428 1.31927 120 84 62
0.277895 -0.195309 1.39197 136 116 96
0.658787 -0.223533 1.3581 153 85 72
0.406644 -0.280136 1.38401 192 119 96
0.680376 -0.188754 1.3628 136 92 70
0.37098 -0.125658 1.42534 152 100 77
0.417148 -0.260863 1.40033 96 48 28
0.687836 -0.171043 1.39315 84 64 46
0.631757 -0.288376 1.30194 112 23 8
0.70548 -0.125712 1.38597 144 111 102
0.658229 -0.178119 1.37071 170 144 124
0.459356 -0.149647 1.35991 170 106 86
0.679577 -0.194945 1.36471 114 89 88
0.652711 -0.241092 1.39168 106 103 61
0.41644 -0.209432 1.4008 110 69 53
0.660787 -0.24285 1.37589 144 118 104
0.401902 -0.22543 1.37907 154 108 84
0.607532 -0.330915 1.36908 146 122 93
0.360461 -0.185115 1.44219 92 67 50
0.481594 -0.0764636 1.3541 70 36 36
0.631223 -0.270815 1.31217 142 54 50
0.361333 -0.19511 1.34536 74 27 10
0.662816 -0.207443 1.36076 103 97 100
0.638513 -0.138326 1.38311 131 83 58
0.653693 -0.130948 1.38087 158 118 104
0.655095 -0.209197 1.36876 110 83 69
0.607489 -0.135861 1.40753 170 121 118
0.656728 -0.189612 1.36507 144 102 82
0.699952 -0.2635 1.30635 140 129 118
0.664111 -0.242198 1.353 155 110 97
0.429917 -0.208787 1.42538 130 89 70
0.743953 -0.169431 1.43565 129 90 58
0.681997 -0.164066 1.38727 116 84 64
0.735977 -0.137771 1.41343 146 120 100
0.283858 -0.191517 1.39332 168 135 112
0.38472 -0.190235 1.41468 160 109 86
0.325459 -0.211859 1.36528 89 48 26
0.407205 -0.22953 1.37807 181 134 113
0.401303 -0.288833 1.38598 110 54 37
0.606229 -0.240228 1.37954 115 89 51
0.708316 -0.254651 1.40204 58 22 10
0.601405 -0.293361 1.36351 121 116 85
0.714054 -0.227944 1.36015 110 98 52
0.243491 -0.105366 1.31106 116 37 28
0.657981 -0.25734 1.30317 126 104 96
0.658703 -0.105358 1.3832 128 56 46
0.656982 -0.202613 1.36666 84 60 50
0.610884 -0.133175 1.4041 140 110 106
0.336997 -0.232778 1.4197 96 60 28
0.267295 -0.114229 1.30832 145 106 87
0.29491 -0.272456 1.34662 95 49 30
0.414902 -0.305847 1.38559 42 22 10
0.662337 -0.115632 1.38259 154 136 128
0.723467 -0.24175 1.41193 132 124 86
0.49222 -0.11278 1.31372 46 32 16
0.698204 -0.169866 1.38442 77 50 28
0.599715 -0.144682 1.40936 152 94 80
0.395982 -0.278957 1.38478 103 29 11
0.61424 -0.191882 1.42726 53 30 3
0.445729 -0.221495 1.41617 137 112 90
0.707213 -0.115138 1.38773 159 134 122
0.260545 -0.133416 1.42029 140 94 69
0.692667 -0.279696 1.29163 128 92 74
0.399221 -0.24796 1.39752 160 113 82
0.610825 -0.230653 1.37977 146 117 101
0.687692 -0.259156 1.31657 162 144 137
0.649275 -0.261911 1.30958 116 90 78
0.445416 -0.262404 1.41016 148 128 96
0.653637 -0.253688 1.31599 138 98 80
0.637103 -0.115508 1.38968 186 148 140
0.615741 -0.268335 1.33553 137 102 79
0.351152 -0.135049 1.40403 110 61 38
0.540321 -0.105041 1.35283 106 86 76
0.59571 -0.16377 1.43623 118 88 57
0.677824 -0.114108 1.38315 140 50 42
0.646785 -0.284849 1.29297 116 68 40
0.320323 -0.273923 1.37105 154 141 92
0.658054 -0.151144 1.39155 133 89 64
0.676732 -0.209677 1.35369 122 73 53
0.355133 -0.199787 1.3387 78 30 16
0.476426 -0.0792115 1.35381 162 146 146
0.604414 -0.303292 1.32929 114 81 52
0.287059 -0.164585 1.30104 156 70 44
0.599101 -0.141754 1.47485 108 92 66
0.588895 -0.301854 1.68245 117 116 72
0.606201 -0.176428 1.43279 44 24 4
0.644526 -0.262612 1.40457 133 110 66
0.392929 -0.230935 1.39465 126 80 50
0.742937 -0.165176 1.41912 136 116 91
0.62552 -0.265171 1.31951 149 115 97
0.70187 -0.209359 1.37027 168 131 108
0.604126 -0.124187 1.42276 76 63 50
0.654235 -0.154883 1.4 120 90 74
0.677624 -0.157596 1.38324 120 104 88
0.450074 -0.246956 1.40637 144 123 98
0.489546 -0.136121 1.32975 110 22 16
0.236815 -0.102096 1.29019 134 70 26
0.649874 -0.241181 1.42499 94 78 42
0.469823 -0.130516 1.32176 90 16 10
0.240133 -0.096767 1.32185 96 44 28
0.250131 -0.0951231 1.31335 140 36 16
0.307464 -0.161529 1.3953 160 112 92
0.610521 -0.217676 1.41051 140 120 92
0.678992 -0.202243 1.3656 128 86 78
0.615482 -0.278261 1.32839 104 77 66
0.731759 -0.160971 1.42059 97 58 35
0.656774 -0.100181 1.38753 130 106 101
0.366691 -0.254622 1.45498 100 82 37
0.659985 -0.139014 1.36922 121 80 60
0.353774 -0.210214 1.34586 160 106 74
0.519687 -0.082972 1.33877 164 110 98
0.390685 -0.296764 1.39832 111 65 44
0.637136 -0.128509 1.38829 166 132 120
0.663187 -0.224745 1.34817 123 26 0
0.506067 -0.0864089 1.33379 126 50 39
0.295504 -0.30231 1.39709 126 118 78
0.508727 -0.111712 1.31947 127 47 42
0.318287 -0.257865 1.3718 106 71 36
0.617774 -0.207687 1.4109 140 106 84
0.624478 -0.277366 1.31283 148 108 92
0.654076 -0.217633 1.36151 136 110 98
0.605276 -0.23131 1.39318 118 94 63
0.259048 -0.120421 1.29674 90 52 50
0.703253 -0.224836 1.3564 162 128 94
0.314075 -0.265901 1.36464 94 32 14
0.690748 -0.19335 1.36903 104 62 43
0.353868 -0.10967 1.40623 126 98 88
0.258199 -0.104141 1.32264 142 110 74
0.67156 -0.266899 1.31406 158 144 138
0.677727 -0.247401 1.36929 110 96 84
0.729054 -0.197762 1.41825 155 128 103
0.397574 -0.484374 1.60651 141 135 83
0.649365 -0.192937 1.36676 104 54 30
0.540584 -0.116391 1.35135 108 93 77
0.401672 -0.218386 1.37469 156 112 88
0.656608 -0.282237 1.29387 114 82 66
0.398406 -0.128105 1.42132 138 82 52
0.674414 -0.141675 1.39006 122 82 62
0.394868 -0.23606 1.39681 158 109 77
0.326552 -0.252108 1.4024 122 87 56
0.475033 -0.143508 1.3262 110 38 29
0.444594 -0.284853 1.41483 100 92 52
0.729471 -0.204597 1.41639 161 136 108
0.400169 -0.173342 1.41652 174 122 100
0.671768 -0.164855 1.38193 120 80 55
0.628421 -0.131256 1.38778 164 129 118
0.386505 -0.253486 1.41058 128 98 60
0.615518 -0.21407 1.40341 69 28 14
0.73266 -0.144508 1.4102 124 92 69
0.394862 -0.195827 1.37888 92 42 24
0.644903 -0.175959 1.3873 90 38 16
0.660656 -0.220133 1.35542 55 14 4
0.667892 -0.204916 1.35859 38 34 41
0.616919 -0.289017 1.31725 118 73 48
0.51936 -0.148993 1.35786 150 106 86
0.30944 -0.235158 1.37285 126 78 57
0.671463 -0.234561 1.34689 108 55 33
0.648797 -0.179718 1.37135 173 128 99
0.410507 -0.195442 1.41498 164 118 102
0.66471 -0.196776 1.35958 100 64 56
0.616162 -0.283058 1.31709 134 100 83
0.413727 -0.297787 1.38664 56 23 13
0.629737 -0.217915 1.40321 82 48 30
0.696573 -0.105458 1.39292 140 118 100
0.656171 -0.237147 1.38616 112 104 90
0.66065 -0.164638 1.37871 43 26 12
0.426808 -0.251373 1.40108 97 48 34
0.400658 -0.324316 1.42094 146 137 93
0.622477 -0.185917 1.41791 54 34 20
0.484638 -0.123146 1.3147 90 16 8
0.466015 -0.103497 1.32226 150 42 38
0.671975 -0.348609 1.33121 128 70 40
0.27409 -0.151824 1.29885 162 138 110
0.252397 -0.08295 1.3244 130 36 14
0.69819 -0.176642 1.38796 140 114 88
0.376909 -0.198869 1.35227 86 32 12
0.257234 -0.122306 1.41587 126 98 72
0.638357 -0.165485 1.38632 110 92 80
0.646603 -0.204272 1.37275 154 100 72
0.430614 -0.22161 1.40957 50 18 12
0.712947 -0.126834 1.39186 158 135 124
0.316919 -0.197698 1.3492 104 58 40
0.623993 -0.174062 1.42217 106 67 45
0.297565 -0.190513 1.37289 116 72 48
0.481499 -0.0677133 1.34659 116 86 82
0.628846 -0.276622 1.30971 139 108 95
0.68758 -0.12152 1.38594 180 156 148
0.615627 -0.12488 1.40004 146 120 116
0.392742 -0.225119 1.37688 130 87 58
0.610214 -0.148077 1.40414 167 135 123
0.688183 -0.212623 1.36071 164 91 62
0.258007 -0.110166 1.3026 120 54 16
0.682933 -0.277906 1.29143 138 104 84
0.273491 -0.0667661 1.32851 132 100 84
0.327804 -0.200722 1.34877 98 54 26
0.405013 -0.199895 1.38827 126 78 62
0.605906 -0.120952 1.42367 38 17 8
0.658631 -0.146154 1.37577 154 113 93
0.489927 -0.0700745 1.35412 140 110 107
0.324844 -0.242933 1.38431 98 62 34
0.655042 -0.240048 1.38063 96 96 79
0.360988 -0.190205 1.35029 64 20 4
0.597809 -0.131256 1.46976 100 80 58
0.364919 -0.212882 1.33775 124 86 56
0.416452 -0.29026 1.38697 42 13 6
0.47946 -0.141296 1.31735 116 30 24
0.676056 -0.334887 1.32886 114 68 39
0.258251 -0.134848 1.28636 84 64 66
0.348598 -0.205555 1.33581 176 116 80
0.361456 -0.254346 1.46126 102 88 46
0.295461 -0.299556 1.37036 106 94 52
0.382643 -0.289588 1.41173 84 60 30
0.298045 -0.163301 1.31233 170 126 102
0.668263 -0.195806 1.35689 66 41 44
0.320361 -0.206218 1.35173 128 84 59
0.269473 -0.197596 1.3851 133 104 82
0.700533 -0.115926 1.38655 124 95 81
0.643085 -0.171233 1.38275 100 80 70
0.301175 -0.154623 1.39532 166 118 98
0.422712 -0.288282 1.38846 81 46 30
0.622727 -0.268993 1.32058 122 67 58
0.315755 -0.213957 1.35562 111 65 40
0.694453 -0.161852 1.3936 95 52 30
0.63223 -0.255746 1.32002 126 86 66
0.262638 -0.085888 1.33068 118 52 42
0.522192 -0.124281 1.31688 157 112 100
0.636846 -0.229648 1.40787 17 30 12
0.393867 -0.198839 1.35267 121 70 54
0.661891 -0.253053 1.35486 143 112 99
0.494377 -0.0998281 1.3267 147 46 44
0.330391 -0.180966 1.36946 104 58 36
0.609222 -0.155881 1.40534 173 137 124
0.622588 -0.232865 1.38537 146 96 75
0.260895 -0.110858 1.30616 131 72 38
0.457048 -0.112362 1.36805 139 111 104
0.368644 -0.138118 1.42842 110 56 36
0.64174 -0.185063 1.43702 88 66 38
0.320743 -0.111418 1.40127 75 38 24
0.668864 -0.16883 1.37996 128 102 89
0.376732 -0.218752 1.3497 136 92 63
0.688438 -0.198224 1.36542 91 37 16
0.432752 -0.241639 1.40487 98 49 34
0.704516 -0.120308 1.38501 109 64 52
0.390247 -0.205514 1.36579 88 38 21
0.723248 -0.256683 1.33379 127 101 68
0.542319 -0.111881 1.34827 133 116 104
0.497052 -0.0965327 1.32473 140 49 46
0.245624 -0.0838727 1.32566 122 32 14
0.498264 -0.117306 1.31035 60 44 30
0.490838 -0.142741 1.33112 90 40 26
0.660599 -0.259691 1.29915 92 73 65
0.255283 -0.0954362 1.32275 134 57 40
0.670749 -0.220934 1.36723 106 34 22
0.655949 -0.193861 1.36488 155 114 90
0.622561 -0.227352 1.39028 148 102 78
0.624614 -0.213934 1.40363 45 10 0
0.60022 -0.324297 1.36734 124 109 63
0.442791 -0.116019 1.35023 106 78 65
0.608226 -0.139505 1.4083 141 80 75
0.247268 -0.125005 1.27904 84 60 66
0.356703 -0.216026 1.34079 126 86 54
0.688581 -0.363711 1.33763 155 146 94
0.401004 -0.196565 1.38856 126 80 61
0.498646 -0.110036 1.32851 54 17 12
0.268238 -0.112123 1.4031 110 74 44
0.643823 -0.193505 1.44844 106 91 58
0.66886 -0.276243 1.30044 162 143 138
0.599873 -0.310162 1.36117 108 76 38
0.43201 -0.231496 1.40579 86 44 28
0.255328 -0.272817 1.36325 138 128 78
0.62295 -0.23357 1.3954 134 98 80
0.392522 -0.218027 1.38569 126 79 49
0.610499 -0.287113 1.35522 127 108 93
0.464644 -0.0787945 1.35481 87 57 48
0.240542 -0.10333 1.28938 130 53 21
0.37634 -0.131125 1.43105 134 79 54
0.238292 -0.0901438 1.3041 122 40 20
0.601882 -0.148054 1.41244 140 80 56
0.233513 -0.108354 1.28356 91 40 43
0.282648 -0.119348 1.39634 147 94 66
0.416419 -0.2681 1.40028 48 14 6
0.678299 -0.253595 1.308 150 127 118
0.238781 -0.0951508 1.31004 119 80 56
0.262332 -0.286768 1.35949 150 141 93
0.253859 -0.127584 1.28602 80 64 64
0.616819 -0.174575 1.42578 117 78 56
0.721984 -0.290806 1.32423 117 80 55
0.65872 -0.254556 1.30847 136 111 102
0.60207 -0.114472 1.42638 95 62 43
0.470603 -0.0667029 1.35484 122 94 90
0.635639 -0.256335 1.31672 154 122 104
0.73101 -0.136834 1.41119 140 118 104
0.669558 -0.187785 1.35513 149 97 80
0.237924 -0.0923312 1.3142 101 14 8
0.397098 -0.266044 1.40713 61 20 6
0.450988 -0.237835 1.40236 129 92 62
0.284331 -0.225305 1.37496 46 14 8
0.668659 -0.12393 1.37753 168 138 126
0.701231 -0.16645 1.39235 97 72 46
0.300726 -0.130981 1.3901 145 95 79
0.709038 -0.216274 1.3613 46 29 16
0.339668 -0.132262 1.39359 114 64 41
0.255412 -0.275965 1.36459 134 127 82
0.277417 -0.119151 1.40152 142 92 66
0.276579 -0.206949 1.38107 107 64 48
0.690746 -0.177355 1.38922 62 42 30
0.260488 -0.143471 1.28334 116 16 20
0.670906 -0.190917 1.36768 96 70 60
0.627488 -0.221548 1.39482 94 56 37
0.654663 -0.184039 1.36541 247 219 200
0.662447 -0.202262 1.36579 96 83 84
0.428927 -0.265422 1.41448 109 61 47
0.282571 -0.227051 1.37134 61 28 22
0.429483 -0.241531 1.40121 65 21 10
0.45659 -0.123235 1.33075 142 94 86
0.641764 -0.253615 1.32003 143 104 82
0.474005 -0.0662309 1.35262 130 101 98
0.43244 -0.286843 1.39122 37 15 6
0.455464 -0.110597 1.36025 110 75 64
0.60996 -0.27136 1.34129 116 84 56
0.453936 -0.253263 1.4157 86 74 32
0.708728 -0.139558 1.38884 126 98 76
0.330783 -0.203701 1.35159 84 40 16
0.706674 -0.255619 1.31314 131 115 98
0.246014 -0.114142 1.28989 89 46 52
0.400122 -0.235057 1.39201 162 112 85
0.669314 -0.342908 1.33809 105 59 25
0.70188 -0.197858 1.37627 134 105 82
0.250583 -0.0839177 1.32078 136 54 22
0.375707 -0.169252 1.42129 160 108 86
0.3457 -0.106313 1.40619 121 86 76
0.71176 -0.255862 1.34029 127 82 55
0.330007 -0.129312 1.39403 145 96 74
0.482182 -0.118921 1.31232 120 24 20
0.338631 -0.105118 1.40843 136 104 93
0.666702 -0.213747 1.36531 56 48 51
0.505296 -0.0989662 1.31783 66 49 40
0.482268 -0.105153 1.3204 96 82 80
0.497167 -0.32874 1.67191 138 136 82
0.256851 -0.256644 1.36834 131 120 82
0.338477 -0.240111 1.38263 112 71 42
0.234669 -0.0748042 1.31227 124 23 6
0.611905 -0.122312 1.40493 124 111 100
0.2818 -0.218453 1.375 76 34 25
0.664881 -0.272034 1.29729 122 104 96
0.600724 -0.131421 1.42143 92 60 52
0.46706 -0.0306086 1.36643 178 156 151
0.413868 -0.196094 1.43178 162 121 104
0.24916 -0.117204 1.29008 27 16 26
0.2817 -0.0707223 1.34198 158 136 124
0.317665 -0.263939 1.40846 137 122 78
0.271052 -0.109937 1.40274 132 90 68
0.263161 -0.290081 1.3631 150 141 93
0.453674 -0.192412 1.47513 148 131 104
0.335606 -0.106212 1.40293 121 81 65
0.476846 -0.0672682 1.34687 126 96 92
0.632093 -0.256471 1.40257 137 86 62
0.659124 -0.160888 1.38949 105 73 53
0.29826 -0.164994 1.31302 164 113 94
0.697901 -0.149718 1.39253 138 112 97
0.259539 -0.124884 1.31961 115 38 36
0.391305 -0.126635 1.43777 129 77 46
0.708763 -0.269357 1.30591 124 104 91
0.386809 -0.118576 1.41309 122 74 46
0.503262 -0.0988763 1.32338 116 96 92
0.662164 -0.216856 1.36084 65 58 60
0.614316 -0.233232 1.38135 140 110 94
0.404249 -0.298524 1.38544 148 94 72
0.467294 -0.0760525 1.35364 110 79 72
0.439654 -0.112241 1.34637 114 91 80
0.332273 -0.194463 1.35379 186 126 106
0.682216 -0.26171 1.30276 140 122 114
0.60953 -0.223467 1.4071 114 82 50
0.263714 -0.246283 1.37434 94 67 46
0.225621 -0.182379 1.25306 150 70 56
0.596938 -0.149111 1.45824 102 87 63
0.61887 -0.240996 1.38111 124 70 40
0.285501 -0.158928 1.30571 140 74 50
0.258456 -0.237583 1.37426 148 132 102
0.596809 -0.153489 1.43835 114 81 63
0.22383 -0.161834 1.26942 166 96 84
0.44176 -0.276351 1.41771 115 100 68
0.345509 -0.193943 1.34122 142 80 60
0.27076 -0.25568 1.35256 71 34 18
0.240092 -0.210874 1.24425 96 96 122
0.686125 -0.336071 1.33365 98 78 46
0.23615 -0.140571 1.26418 116 9 12
0.644282 -0.3431 1.398 144 130 97
0.673054 -0.274023 1.29868 178 161 154
0.669735 -0.347697 1.33899 156 131 92
0.305523 -0.266044 1.35159 110 52 31
0.285837 -0.17152 1.3013 142 46 25
0.250347 -0.150139 1.27034 94 4 5
0.648616 -0.221602 1.41832 88 89 56
0.641709 -0.206064 1.41189 106 94 74
0.643283 -0.351209 1.40895 159 148 108
0.270876 -0.171323 1.30053 142 108 54
0.248943 -0.173871 1.25181 81 12 28
0.641315 -0.123277 1.4311 198 174 168
0.47115 -0.134924 1.31734 32 9 2
0.717506 -0.214288 1.36665 118 106 68
0.387786 -0.290329 1.39175 82 42 28
0.23066 -0.138833 1.261 100 10 0
0.264179 -0.150685 1.28123 108 8 10
0.64824 -0.280104 1.29766 142 106 88
0.268416 -0.160254 1.28345 138 66 31
0.280329 -0.263155 1.34933 112 70 49
0.700026 -0.153789 1.39368 121 95 74
0.210698 -0.149263 1.26175 166 122 69
0.684589 -0.343724 1.33556 118 89 55
0.25742 -0.173209 1.2556 115 35 34
0.687898 -0.258614 1.37051 108 80 61
0.260085 -0.209192 1.38041 113 87 62
0.201723 -0.145297 1.25287 139 96 58
0.214894 -0.128901 1.26766 165 130 96
0.276487 -0.268312 1.34361 61 36 24
0.265506 -0.173405 1.30025 160 138 110
0.257664 -0.223621 1.37382 110 90 62
0.33666 -0.20635 1.35765 108 62 36
0.259479 -0.171737 1.27778 137 90 68
0.643216 -0.166754 1.38691 118 98 83
0.249442 -0.165329 1.25149 104 16 24
0.286566 -0.21273 1.37557 86 40 24
0.307614 -0.27441 1.36125 98 50 32
0.603889 -0.281583 1.36282 98 73 35
0.621332 -0.281538 1.31206 112 74 50
0.284768 -0.23351 1.37743 85 40 28
0.213208 -0.158681 1.27744 140 80 61
0.236001 -0.184842 1.24891 170 48 50
0.406856 -0.304208 1.38456 106 70 54
0.655648 -0.268763 1.30221 106 78 68
0.709517 -0.206653 1.36504 71 46 22
0.633235 -0.136441 1.3891 150 116 102
0.337188 -0.252334 1.42232 131 116 71
0.205949 -0.129383 1.2541 140 96 61
0.287597 -0.180518 1.32138 169 126 104
0.667863 -0.355539 1.33648 156 142 94
0.673071 -0.126054 1.37846 172 144 132
0.270657 -0.266541 1.34878 109 66 42
0.297964 -0.275924 1.34884 74 34 16
0.666062 -0.339089 1.33693 118 56 26
0.603522 -0.138475 1.42738 98 39 28
0.253667 -0.200311 1.26199 142 110 89
0.297883 -0.171812 1.31658 164 110 92
0.256744 -0.14247 1.28705 78 60 60
0.501937 -0.12213 1.31349 106 17 11
0.368262 -0.209785 1.34425 162 114 91
0.678598 -0.183894 1.37416 96 56 36
0.250159 -0.139793 1.27703 126 120 126
0.292989 -0.243928 1.36978 80 32 16
0.67317 -0.343419 1.3366 166 112 82
0.245161 -0.162703 1.24761 111 15 26
0.692967 -0.204704 1.36802 157 102 82
0.664287 -0.282853 1.29372 182 156 144
0.234463 -0.210291 1.24535 136 127 118
0.668993 -0.134468 1.37319 149 102 80
0.234915 -0.207545 1.24621 129 123 116
0.254333 -0.174407 1.25138 120 39 45
0.298341 -0.283125 1.35193 60 38 24
0.261911 -0.205973 1.38421 146 121 96
0.336069 -0.149733 1.3953 158 116 102
0.222228 -0.15396 1.26306 135 53 28
0.239301 -0.126251 1.27763 109 36 40
0.628953 -0.228582 1.39512 65 52 42
0.30718 -0.183859 1.38276 140 93 70
0.71232 -0.326801 1.35258 46 41 15
0.514495 -0.106672 1.31991 136 29 31
0.289145 -0.300961 1.3725 123 114 70
0.654595 -0.336945 1.35509 131 116 84
0.431105 -0.300773 1.41951 46 23 10
0.585235 -0.346495 1.65315 134 132 84
0.293332 -0.244707 1.36285 38 7 4
0.458184 -0.0816643 1.35766 109 78 69
0.412344 -0.323161 1.41054 150 145 98
0.677032 -0.26755 1.30207 200 182 178
0.666533 -0.18495 1.36697 130 99 78
0.283389 -0.283102 1.34383 101 64 40
0.632902 -0.103149 1.42381 196 172 164
0.277457 -0.280369 1.34586 90 53 28
0.37891 -0.228056 1.37949 134 89 59
0.620565 -0.191417 1.40781 78 53 34
0.260625 -0.194862 1.26353 150 118 101
0.718023 -0.122429 1.3939 121 92 74
0.611226 -0.223665 1.38764 104 74 58
0.259861 -0.0992869 1.32467 134 94 82
0.248583 -0.157486 1.26876 75 2 3
0.252111 -0.118845 1.29234 100 42 46
0.26615 -0.254263 1.3829 84 51 38
0.632024 -0.198866 1.43119 118 92 66
0.597584 -0.17497 1.43951 122 90 60
0.326702 -0.186685 1.35053 96 48 28
0.282184 -0.270357 1.34857 118 74 54
0.326245 -0.190206 1.34512 120 69 50
0.292535 -0.290034 1.35025 62 35 17
0.63742 -0.215855 1.4127 78 68 54
0.596931 -0.183955 1.44315 132 112 84
0.276974 -0.156313 1.29691 154 122 84
0.268734 -0.149015 1.28866 137 70 49
0.387007 -0.307951 1.40773 128 118 74
0.64587 -0.210027 1.44773 118 102 80
0.422375 -0.208021 1.42186 132 92 80
0.701214 -0.270095 1.30121 138 111 98
0.702017 -0.276126 1.29846 148 112 96
0.402401 -0.274888 1.38261 190 126 102
0.226192 -0.0738797 1.31615 146 41 14
0.261215 -0.170398 1.28814 122 84 40
0.327891 -0.435729 1.65882 136 130 77
0.749656 -0.338109 1.37911 150 135 91
0.237376 -0.0769516 1.316 113 22 8
0.521795 -0.109791 1.32704 149 88 80
0.254392 -0.0845111 1.33163 118 17 4
0.343209 -0.201335 1.34161 104 50 28
0.257956 -0.143339 1.4055 123 83 52
0.6062 -0.293158 1.38626 118 106 62
0.479817 -0.136608 1.31461 117 26 21
0.610207 -0.209875 1.40527 124 91 68
0.494392 -0.106547 1.32394 138 40 32
0.356028 -0.138287 1.42314 115 68 54
0.627002 -0.250085 1.4098 100 50 20
0.248744 -0.212984 1.25439 117 108 97
0.510888 -0.088495 1.3379 98 46 42
0.668932 -0.295554 1.30738 90 56 28
0.435117 -0.291574 1.39754 33 15 3
0.238335 -0.0852482 1.3171 115 56 46
0.597101 -0.135306 1.42189 81 48 34
0.658636 -0.331317 1.33692 128 75 55
0.26132 -0.281924 1.35666 142 136 90
0.286015 -0.273968 1.34295 116 76 59
0.61746 -0.201398 1.43382 146 118 87
0.270472 -0.260231 1.34537 80 43 24
0.515163 -0.102533 1.3212 142 22 24
0.493042 -0.120254 1.30734 47 31 22
0.380855 -0.189502 1.36723 122 70 52
0.286371 -0.200964 1.38578 92 52 42
0.247463 -0.132341 1.27877 112 106 120
0.721836 -0.248718 1.41511 132 88 66
0.654451 -0.220159 1.41055 124 106 82
0.726358 -0.254325 1.40647 137 110 72
0.654785 -0.160841 1.39557 99 66 44
0.634446 -0.252537 1.32385 76 48 22
0.344366 -0.246662 1.43948 146 132 98
0.61911 -0.199831 1.4011 138 111 88
0.239843 -0.115682 1.28203 112 41 46
0.304 -0.285315 1.35869 61 35 19
0.293413 -0.258249 1.35036 78 30 20
0.362998 -0.222487 1.34587 103 66 38
0.29227 -0.249473 1.35871 76 28 19
0.481432 -0.113084 1.32126 90 18 14
0.384137 -0.27874 1.40203 120 100 60
0.624538 -0.25568 1.39962 143 118 78
0.646706 -0.228876 1.41709 99 95 64
0.253545 -0.135299 1.28373 100 92 100
0.372753 -0.257594 1.45498 123 96 54
0.300797 -0.14486 1.39786 152 105 86
0.627211 -0.249477 1.42675 122 78 47
0.240822 -0.0520808 1.30422 136 69 68
0.447623 -0.231585 1.40662 120 96 82
0.49846 -0.258897 1.61171 98 91 58
0.279635 -0.17674 1.31081 122 74 38
0.257782 -0.0597078 1.31536 136 79 76
0.401109 -0.188481 1.41087 174 126 105
0.698149 -0.21554 1.36008 144 78 51
0.421808 -0.275244 1.39383 34 12 4
0.292728 -0.264457 1.34735 88 40 28
0.458993 -0.112321 1.33515 146 85 80
0.637966 -0.283285 1.29714 140 96 78
0.393897 -0.189366 1.4134 158 111 93
0.439587 -0.10661 1.35602 126 103 94
0.343747 -0.219752 1.35232 90 46 21
0.478747 -0.0809631 1.34471 125 40 40
0.311949 -0.21099 1.35417 130 84 62
0.601843 -0.185997 1.42921 76 51 23
0.479629 -0.0972597 1.32291 147 79 77
0.602342 -0.299952 1.37176 124 110 76
0.281205 -0.256487 1.35059 84 50 40
0.658952 -0.230336 1.35011 173 79 60
0.603068 -0.307051 1.36585 101 81 57
0.668937 -0.233571 1.34796 132 60 42
0.715916 -0.251258 1.4022 89 60 41
0.239864 -0.136066 1.27688 84 68 68
0.699752 -0.194074 1.36998 84 60 40
0.274327 -0.274797 1.34402 91 54 33
0.248738 -0.125557 1.28725 98 82 86
0.250094 -0.145038 1.27548 86 64 69
0.487732 -0.106096 1.32224 122 26 26
0.422996 -0.278442 1.39314 34 8 0
0.396267 -0.208319 1.37203 89 38 20
0.265699 -0.126376 1.29252 112 26 27
0.286822 -0.301009 1.37188 124 114 70
0.256148 -0.14363 1.27908 113 99 104
0.300587 -0.261072 1.34948 48 6 0
0.658148 -0.262773 1.301 160 140 134
0.643965 -0.201019 1.40572 84 66 42
0.636376 -0.170421 1.38339 66 50 44
0.6489 -0.182436 1.37113 163 109 79
0.260306 -0.285723 1.3621 142 132 91
0.380189 -0.200872 1.35518 75 25 14
0.257479 -0.253627 1.37194 109 96 64
0.285477 -0.286692 1.34575 74 45 23
0.271287 -0.113878 1.40132 146 98 73
0.263016 -0.114958 1.40942 118 86 62
0.662431 -0.131131 1.3808 130 90 70
0.226107 -0.0737856 1.31675 156 62 26
0.418957 -0.293105 1.38369 80 46 34
0.409893 -0.312689 1.39139 58 35 18
0.242735 -0.126475 1.28138 118 107 108
0.299952 -0.167426 1.31007 170 128 108
0.636578 -0.112414 1.39055 146 109 104
0.69502 -0.137264 1.38169 153 118 100
0.680248 -0.204915 1.36595 130 86 74
0.607147 -0.291331 1.33423 156 134 118
0.639517 -0.0837201 1.44318 178 157 150
0.735899 -0.152585 1.40792 147 131 107
0.245023 -0.0779613 1.31624 92 30 30
0.369603 -0.240654 1.4481 86 38 20
0.447277 -0.268049 1.40861 98 90 48
0.646704 -0.20923 1.40934 156 144 121
0.693473 -0.217117 1.36403 148 79 50
0.29182 -0.15898 1.31121 160 104 87
0.46881 -0.099087 1.32086 124 29 28
0.72557 -0.104731 1.42167 148 127 113
0.460183 -0.0733401 1.35106 134 102 96
0.354524 -0.122871 1.41691 83 43 32
0.31651 -0.180041 1.39038 121 73 55
0.67033 -0.222074 1.34798 86 30 14
0.423329 -0.281513 1.39198 34 9 0
0.478032 -0.0986105 1.31849 138 105 101
0.543986 -0.334285 1.70185 136 135 87
0.658997 -0.302002 1.68294 142 140 92
0.639433 -0.289999 1.30406 133 76 54
0.259279 -0.182019 1.25654 136 74 72
0.676076 -0.279933 1.29042 172 152 146
0.652861 -0.148202 1.36179 154 116 100
0.387283 -0.126514 1.44052 124 70 40
0.25769 -0.141924 1.28265 76 60 64
0.332605 -0.210814 1.36234 102 62 38
0.349946 -0.107726 1.40791 132 100 94
0.707459 -0.0953409 1.41108 137 107 94
0.599344 -0.316567 1.36563 120 96 56
0.288638 -0.240639 1.37213 76 32 22
0.690925 -0.326338 1.3309 92 79 64
0.671261 -0.183622 1.37003 129 87 63
0.72178 -0.207091 1.40036 156 114 86
0.753001 -0.320622 1.36174 140 126 82
0.685289 -0.216912 1.36118 91 46 32
0.721036 -0.263301 1.40087 146 112 82
0.438985 -0.119616 1.35263 120 91 74
0.397361 -0.204928 1.37243 86 36 20
0.23041 -0.0786276 1.31555 154 76 36
0.67487 -0.252198 1.33029 153 113 96
0.271672 -0.291013 1.35423 138 127 86
0.254517 -0.178606 1.25027 124 36 38
0.240748 -0.0839043 1.30955 108 40 26
0.239967 -0.12747 1.27635 92 60 64
0.636671 -0.260751 1.39852 116 54 28
0.65802 -0.155408 1.38965 136 93 70
0.280302 -0.299081 1.36776 148 138 96
0.652708 -0.101058 1.38673 182 160 154
0.28373 -0.21901 1.37801 62 20 13
0.597913 -0.171579 1.43842 108 72 42
0.501486 -0.107272 1.32382 206 186 182
0.51572 -0.10465 1.32533 136 28 28
0.256366 -0.269525 1.36102 146 136 90
0.348628 -0.221238 1.34672 102 62 34
0.328571 -0.260109 1.43222 139 126 80
0.252397 -0.114933 1.28847 99 38 40
0.468465 -0.0570286 1.36546 178 150 148
0.362532 -0.187873 1.34986 86 44 24
0.668803 -0.214678 1.35529 132 118 120
0.641921 -0.242566 1.41171 103 69 44
0.420674 -0.217958 1.40751 71 30 18
0.748209 -0.320894 1.36203 113 82 52
0.310748 -0.284405 1.38428 96 66 23
0.481468 -0.151284 1.3535 127 76 50
0.387236 -0.210408 1.36332 90 44 22
0.75407 -0.314771 1.35105 117 101 58
0.693572 -0.224836 1.35954 42 12 4
0.708322 -0.192235 1.39099 69 52 33
0.634107 -0.237767 1.41394 64 24 16
0.744659 -0.294748 1.32459 130 122 70
0.717994 -0.280674 1.30358 127 92 73
0.269866 -0.155841 1.39555 138 104 76
0.383521 -0.299145 1.41034 68 53 19
0.732466 -0.20943 1.41372 143 118 96
0.33982 -0.184478 1.35968 128 82 66
0.634406 -0.21232 1.4297 74 51 30
0.730367 -0.190368 1.45705 126 111 89
0.713153 -0.237852 1.41259 106 80 78
0.651694 -0.176739 1.37664 162 127 102
0.72138 -0.203711 1.42303 147 106 84
0.385023 -0.206643 1.35895 72 25 13
0.305543 -0.292917 1.38691 91 75 37
0.486912 -0.101371 1.31801 127 24 24
0.637233 -0.0746082 1.43984 184 164 158
0.634685 -0.270201 1.38715 156 140 102
0.495533 -0.0791364 1.35722 132 48 44
0.59638 -0.168273 1.4265 109 75 46
0.639076 -0.099992 1.41998 204 180 175
0.709009 -0.207427 1.36226 61 23 10
0.401237 -0.313656 1.38521 145 140 95
0.732446 -0.167256 1.41763 79 41 12
0.63787 -0.196255 1.36863 94 66 33
0.479681 -0.138826 1.3196 78 14 12
0.632993 -0.269433 1.40264 146 120 76
0.694054 -0.209621 1.3595 164 108 76
0.444756 -0.296258 1.414 124 118 74
0.642309 -0.188334 1.43554 86 70 38
0.464989 -0.139119 1.30279 132 35 24
0.492488 -0.275941 1.6173 110 108 66
0.238084 -0.142374 1.44533 133 108 82
0.295045 -0.187223 1.39396 145 99 76
0.255673 -0.164125 1.27679 73 4 2
0.662852 -0.266319 1.29373 148 130 123
0.434584 -0.313479 1.41793 138 130 88
0.45307 -0.259535 1.40501 132 124 76
0.525243 -0.121996 1.33861 134 118 104
0.612355 -0.239665 1.38729 114 80 54
0.695735 -0.219128 1.35503 162 92 60
0.70453 -0.260476 1.31294 100 98 86
0.302639 -0.28783 1.35113 63 41 24
0.447673 -0.286491 1.39948 137 132 87
0.70731 -0.262352 1.31026 160 144 126
0.444804 -0.297578 1.40534 137 132 88
0.629334 -0.175758 1.42765 93 59 38
0.423275 -0.212164 1.41906 71 28 18
0.464525 -0.067115 1.36091 144 116 111
0.522065 -0.112731 1.32212 131 78 74
0.440388 -0.294679 1.38048 45 26 8
0.64326 -0.182254 1.45002 86 62 36
0.63648 -0.109984 1.38994 160 123 118
0.701574 -0.205334 1.41674 116 66 50
0.401483 -0.203658 1.37816 130 86 63
0.540388 -0.111185 1.35373 138 120 114
0.438362 -0.308918 1.41608 131 124 78
0.287159 -0.175225 1.33736 151 126 106
0.660829 -0.272766 1.29287 136 112 104
0.702883 -0.111883 1.38929 158 130 105
0.239037 -0.138961 1.44166 149 124 102
0.633835 -0.143146 1.41237 210 164 138
0.671172 -0.276603 1.28498 171 151 146
0.856692 -0.240786 1.67789 96 93 54
0.52542 -0.117115 1.30591 94 78 67
0.597975 -0.128337 1.47105 102 80 58
0.653612 -0.250826 1.38662 84 81 50
0.257206 -0.266159 1.36062 128 114 78
0.445592 -0.292632 1.41248 125 120 74
0.520707 -0.0930599 1.32784 140 81 75
0.710244 -0.119294 1.38826 130 112 106
0.30529 -0.285289 1.37925 43 25 12
0.226487 -0.0885369 1.30009 154 79 62
0.235559 -0.108495 1.29336 109 19 20
0.715087 -0.132841 1.40708 214 197 192
0.433071 -0.279682 1.39596 48 25 14
0.670129 -0.267911 1.29233 173 154 150
0.617164 -0.298436 1.32709 108 72 42
0.274907 -0.237337 1.36427 86 44 32
0.744847 -0.304353 1.34043 140 110 78
0.257622 -0.0930579 1.32964 120 61 47
0.293279 -0.119454 1.3898 124 72 46
0.264894 -0.153043 1.29311 99 25 5
0.406923 -0.207898 1.37426 131 84 67
0.732372 -0.167969 1.43118 38 16 8
0.72364 -0.125405 1.40053 141 96 77
0.765299 -0.0332084 1.32496 156 138 125
0.642695 -0.291529 1.30373 117 15 8
0.260442 -0.211643 1.37785 124 102 74
0.730669 -0.106477 1.43017 142 125 110
0.401146 -0.166481 1.4151 170 117 93
0.636873 -0.253856 1.31934 132 86 64
0.272942 -0.250988 1.41986 106 56 36
0.305672 -0.10999 1.43241 80 38 21
0.462337 -0.129455 1.30548 148 93 78
0.364344 -0.243172 1.42409 112 84 48
0.349427 -0.198105 1.45657 100 53 36
0.725146 -0.150657 1.42004 86 58 29
0.72971 -0.15437 1.42041 42 14 2
0.735833 -0.130841 1.42295 138 123 108
0.384433 -0.154787 1.31257 114 66 50
0.514787 -0.0972916 1.34753 136 27 29
0.355059 -0.11873 1.34997 103 56 40
0.218412 -0.0662501 1.32521 160 70 63
0.486492 -0.110467 1.31968 100 24 22
0.610043 -0.172759 1.43454 58 31 16
0.254806 -0.178687 1.2571 157 138 142
0.392245 -0.174341 1.36577 162 112 88
0.722092 -0.169788 1.40584 56 33 22
0.709202 -0.251266 1.39091 46 15 6
0.256968 -0.207866 1.24061 148 134 118
0.219971 -0.0708142 1.32117 148 43 36
0.387116 -0.314563 1.41923 104 90 59
0.311728 -0.25126 1.36949 54 20 6
0.68672 -0.252043 1.36941 122 91 76
0.193841 -0.0664723 1.36647 145 30 22
0.232877 -0.129356 1.2889 80 68 68
0.649689 -0.206227 1.45758 112 95 67
0.654657 -0.231913 1.35679 152 112 100
