ply
format ascii 1.0
element vertex 1308
property float x
property float y
property float z
property uchar red
property uchar green
property uchar blue
end_header
-0.587998 -0.0983442 2.57774 16 16 16
-0.287799 0.140691 2.44577 56 44 30
-0.0317642 0.211184 2.61484 16 16 14
-0.300471 0.152428 2.45591 44 32 20
0.0259135 0.245694 2.62443 140 132 172
0.0471427 0.282267 2.58294 102 98 97
-0.638668 -0.0768356 2.56224 54 53 51
-1.25815 -0.368955 2.51112 61 62 64
-0.433441 0.047473 2.57532 14 15 26
0.00555179 0.300814 2.55039 58 44 20
0.0765632 0.314085 2.6029 95 91 84
-0.324646 0.158187 2.49171 74 62 38
-1.23125 -0.336713 2.50914 28 26 30
-1.20322 -0.30849 2.49395 28 29 37
-0.426369 0.0827211 2.56054 14 15 22
-0.349778 0.153569 2.51588 44 36 24
-0.0137635 0.300647 2.58468 12 12 10
-0.3946 0.126094 2.54649 50 50 54
-0.373365 0.143526 2.53367 76 72 74
0.0622671 0.346107 2.60683 90 84 103
-1.16285 -0.303068 2.71707 115 108 138
-1.10269 -0.32686 2.80738 136 131 168
0.0180017 0.347021 2.68631 24 24 24
-1.2402 -0.331396 2.69925 31 30 36
0.076283 0.392767 2.63421 54 42 30
-0.43281 0.0920922 2.73261 10 10 6
0.0338457 0.420141 2.6472 56 42 24
-0.32537 0.230777 2.65168 83 83 81
-0.283005 0.27034 2.61192 156 154 147
-1.43432 -0.397125 2.72517 54 54 58
-0.153296 0.32743 2.65524 20 14 5
-1.41162 -0.374035 2.72743 10 8 14
-1.4614 -0.375403 2.76031 100 102 106
-0.127355 0.369603 2.70317 26 18 6
-1.43577 -0.351737 2.76166 10 9 12
-1.0593 -0.0130179 2.40919 30 32 34
-1.49302 -0.339693 2.81092 59 59 64
-1.46342 -0.319133 2.80748 17 17 19
-1.30361 -0.237008 2.85647 13 12 20
-1.47563 -0.780301 4.11935 107 88 68
-1.48931 -0.262169 2.86751 20 20 21
-1.51268 -0.270148 2.87334 112 112 116
-1.1862 0.0371898 2.66431 43 48 53
-1.53293 -0.222066 2.91215 12 12 15
-1.51188 -0.188791 2.91386 4 4 8
-1.54417 -0.196764 2.92613 146 148 158
-1.56382 -0.201744 2.95138 63 64 76
-1.09145 0.207494 2.51861 156 154 156
-1.58602 -0.587956 4.17233 124 98 56
-1.5401 -0.152583 2.94501 135 136 145
-1.228 0.119707 2.74772 38 52 40
-0.768184 0.352627 2.9301 22 20 19
-1.5034 -0.0646783 2.95056 13 12 16
-1.62648 -0.123169 2.99191 81 60 41
-1.52932 -0.0508118 2.96758 94 94 104
-1.13961 0.27466 2.60832 14 8 4
-1.55873 -0.0549961 2.98905 40 40 46
-1.52946 -0.0301086 2.97588 164 167 176
-1.51812 -0.012036 2.96003 130 132 137
-1.30425 0.131333 2.87597 38 46 58
-1.2 0.274292 2.71243 26 25 36
-1.18151 0.301226 2.66792 19 20 19
-0.294922 0.703135 3.08058 32 26 24
-1.46674 0.0846511 2.94799 165 169 179
-1.45558 0.103601 2.93463 2 3 16
-1.4962 0.0906994 2.96212 16 16 28
-1.43566 0.133101 2.93234 50 52 66
-1.48953 0.109739 2.93688 53 54 61
-1.23086 0.313842 2.72137 23 26 29
-1.28439 0.269359 2.79814 90 98 115
-1.36418 0.229335 2.82046 102 108 134
-0.326508 0.745956 3.12864 22 10 2
-0.184102 0.838474 3.10685 58 38 20
-1.55065 0.926961 2.29389 102 72 27
-0.487153 -0.240994 2.55177 51 55 60
-1.50606 0.0647197 2.96687 80 84 94
-0.925553 -1.51226 3.38675 152 154 156
-0.966474 -1.45374 3.44731 114 118 124
-0.303973 -0.512504 2.55495 90 86 62
0.375574 -0.131521 2.52669 73 72 82
-1.14817 -1.47498 3.48726 148 150 153
-0.816525 -0.800346 2.69707 46 50 65
0.0239897 -0.338596 2.64108 131 137 138
-0.717373 -0.69777 2.6406 62 70 82
0.312352 -0.0817723 2.51396 86 88 88
-0.576643 -0.52562 2.51655 144 156 172
-0.879205 -0.769438 2.77263 124 128 147
-0.919975 -1.04204 3.22496 136 154 167
-0.885168 -1.02464 3.22754 78 94 105
-1.18054 -1.23339 3.45637 170 174 187
-0.867525 -0.927666 3.1773 88 100 114
0.0425383 -0.0276939 2.47386 80 78 88
-1.30824 -1.2047 3.50738 64 54 45
-0.759002 -0.407644 2.57356 100 105 118
0.059459 0.220376 2.57854 20 17 13
-1.2274 -0.35587 2.48141 64 66 74
-1.29973 -0.388832 2.56996 155 158 162
-0.149208 0.21964 2.6554 28 28 26
-1.36647 -0.402628 2.64644 116 116 121
-1.19982 0.0662737 2.59492 26 26 32
-1.17329 0.262944 2.6636 35 37 43
-1.16222 0.290389 2.64303 132 134 138
-1.51301 0.0160203 2.95871 139 138 146
-0.155199 0.817642 3.08342 51 35 16
-1.47168 0.140249 2.94992 48 51 60
-2.51643 -0.511224 3.38435 129 99 55
-2.36233 -0.421479 3.37051 123 92 47
-2.88562 -0.52451 3.1984 122 93 47
-0.268004 1.36087 2.49402 104 80 42
-0.350042 1.48888 2.31629 106 80 40
-0.325916 -0.102215 2.44554 98 104 116
-1.40824 0.213718 2.89621 98 104 132
-0.292086 -0.992738 2.79802 132 136 140
-1.00841 -1.35792 3.36794 112 120 128
-0.801606 -0.986082 3.08111 139 154 164
-0.8443 -0.782988 2.72782 32 37 54
0.0413204 -0.178288 2.55883 104 104 116
-0.103457 -0.12671 2.53326 94 100 114
0.350833 0.119814 2.60474 81 73 60
-0.44053 -0.0327112 2.55258 22 21 33
-1.54425 -0.653642 4.18 124 92 55
-1.09601 0.253523 2.49878 28 28 30
-0.153483 0.787602 3.06046 68 56 40
-2.62831 -0.578381 3.38694 130 102 56
-1.32833 0.287339 2.81957 56 62 73
-2.85605 -0.688404 3.39502 128 100 54
-3.63581 -0.976047 3.31845 110 79 38
-0.812397 -1.28058 3.14404 204 202 216
-0.024838 -0.310113 2.66698 38 42 46
-0.896939 -0.846582 2.82469 128 137 150
-0.721354 -0.44431 2.61644 68 72 84
-0.825254 -0.481818 2.59541 54 58 66
-0.263701 0.00305649 2.37602 91 90 94
-0.43377 -0.0590662 2.54071 26 27 40
-0.439713 0.00278653 2.57247 24 24 36
-0.150168 0.298743 2.62955 107 100 110
-1.53003 -0.436695 2.77746 58 58 62
-1.49908 -0.708634 4.15801 146 115 64
-2.56796 -0.950409 3.7496 152 126 80
-1.62544 -0.21476 2.99471 118 94 70
-1.36807 0.0128964 2.81189 12 12 16
-0.173672 1.1251 2.80827 134 109 66
-0.601505 1.08405 2.62398 102 74 30
0.146222 1.62691 2.39515 89 56 18
-1.39662 0.799028 2.52506 110 78 32
-1.14847 1.03328 2.3882 109 84 38
-0.103966 0.257839 2.59095 165 160 193
0.0519456 -0.805257 2.85602 135 136 136
-0.826659 -0.809791 2.71902 106 113 122
-0.0495744 -0.326395 2.74387 56 60 62
-0.255498 0.0453737 2.3803 45 44 46
-0.420747 -0.0822028 2.52902 18 22 28
-0.359278 0.186679 2.66086 72 72 68
-0.386962 0.170448 2.67353 60 60 56
-1.01709 0.0305951 2.50262 44 38 44
-1.51434 -0.144381 2.92975 6 6 7
-1.11686 0.225239 2.6364 20 22 30
-1.18575 0.184082 2.75396 21 28 36
-1.48834 0.0222475 2.93688 23 23 32
-2.57745 -0.458222 3.29109 144 114 64
-3.30832 -0.823386 3.28203 126 95 44
-2.8552 -0.521244 3.20952 124 92 42
-1.8506 0.0985753 3.06355 126 100 50
-3.29308 -0.706626 3.17769 132 97 48
-2.6682 -0.282401 3.02968 122 97 46
-0.0586291 -0.77952 2.77049 60 62 62
-0.351919 -0.574738 2.50545 108 110 62
-0.890741 -1.38668 3.36078 133 136 140
-0.322746 -0.543806 2.53258 111 108 60
-0.389785 -0.527182 2.47286 130 126 86
-0.751549 -1.0348 3.06776 165 183 193
-0.356625 -0.486438 2.52096 64 56 18
0.379182 -0.0845481 2.55238 38 37 35
0.0644032 -0.197437 2.53051 60 62 70
-0.0365113 -0.343495 2.72774 62 66 68
-0.977158 -1.09796 3.25091 185 195 204
-0.200021 -0.326028 2.63682 120 124 126
-0.859669 -0.715257 2.94314 51 58 76
-0.168002 -0.0272369 2.37467 9 10 13
-1.01859 -0.536293 2.63946 44 48 56
-1.02127 -0.477752 2.53299 55 62 70
-0.922465 -0.442515 2.57251 38 42 49
-0.381725 -0.13469 2.54754 8 9 14
-0.939531 -0.337105 2.44583 110 116 124
-0.692823 -0.266215 2.54584 78 80 78
-0.499063 -0.191112 2.61742 10 11 12
-1.25636 -1.07002 3.61244 58 58 70
-0.630017 -0.207427 2.54094 44 48 53
0.0688454 0.252694 2.60043 52 48 40
-1.38849 -0.56033 2.71291 38 39 47
-0.126185 0.269826 2.61067 5 2 22
-0.968238 -0.0723285 2.42522 12 12 12
-0.650337 0.0400481 2.61409 25 25 20
-0.686897 0.0484029 2.60071 14 14 10
-0.826988 0.0694131 2.42816 15 15 15
-1.34125 -0.317736 2.77408 26 26 26
-0.695755 0.105791 2.60776 52 30 16
-1.30566 -0.239088 2.74347 19 18 21
-1.52153 -0.37056 2.883 46 50 56
-1.36317 -0.209006 2.77663 15 15 15
-0.0534704 0.499214 2.85336 23 23 23
-1.32344 -0.161025 2.91129 13 12 14
-1.27511 -0.0764334 2.82106 28 26 34
-1.36125 -0.0995544 2.84416 16 16 16
-1.10104 0.136394 2.63885 44 45 46
-1.14064 0.174418 2.60287 27 28 32
-1.56746 -0.152323 2.94721 12 12 17
0.123125 0.684039 3.23822 41 33 24
-1.4893 0.0424232 3.00511 72 76 80
-3.30157 -0.372284 2.74546 137 109 58
-1.53436 0.856295 2.37847 110 80 33
-0.650033 -1.24316 3.10373 110 112 114
-0.694376 -1.25574 3.16217 94 95 95
-0.719749 -0.531311 2.67254 29 32 44
0.270911 0.14863 2.59391 30 24 14
-0.945639 -0.528433 2.70295 32 34 40
0.236662 0.193965 2.63228 36 26 17
0.364154 0.177051 2.79828 50 38 24
0.0128855 0.226028 2.57728 134 134 118
-0.59721 -0.0760508 2.59987 90 92 94
-1.16151 -0.271814 2.48363 18 16 20
-1.10769 -0.19907 2.39781 64 68 82
-1.21854 -0.289816 2.62488 48 44 50
-0.11219 0.396604 2.69644 38 32 12
-0.0960038 0.415279 2.69551 71 57 34
-1.17517 0.271777 2.67773 96 92 103
0.0558798 0.791477 3.33337 50 37 18
-3.42414 -1.05427 3.43176 137 112 66
-3.03138 0.0210126 2.47508 148 127 81
-0.951392 -0.558051 2.59781 138 146 160
-0.713297 -0.398305 2.57718 54 62 70
-1.04698 -0.508453 2.60405 115 122 134
-0.264272 0.0766182 2.38878 45 46 51
-0.928282 -0.231304 2.66984 54 54 53
-0.901447 -0.0950667 2.38421 8 8 8
-0.894235 -0.0423955 2.35692 5 5 5
-0.88743 0.0148503 2.38222 6 6 6
-0.155232 0.722612 3.0537 14 13 12
-1.2662 0.963931 2.40153 115 86 30
0.367675 -0.181925 2.48818 64 64 65
-0.160808 -0.423021 2.72465 84 88 84
0.341918 -0.00480957 2.53657 112 112 116
-0.907417 -0.727016 2.87109 46 78 64
-1.17433 -0.291413 2.49808 54 48 48
-0.570434 0.0586123 2.75479 64 62 58
-1.28496 0.150646 2.82119 52 58 74
0.0989822 -0.190187 2.5015 6 7 11
-0.598359 -0.0204416 2.61531 130 130 129
-1.21608 0.990681 2.4555 118 86 33
0.372026 -0.05766 2.56841 130 131 134
-0.97548 -0.263863 2.42207 52 54 60
-0.886682 -0.188777 2.57125 26 26 26
-0.139544 0.284515 2.62491 90 82 86
-1.11567 -0.241425 2.73564 54 48 70
-1.16374 -0.416561 2.56454 48 51 58
-0.422786 -0.214754 2.56295 10 10 10
-0.227908 -0.012148 2.38275 16 17 19
0.29068 0.193961 2.73735 42 36 28
0.154356 0.250912 2.63972 15 12 9
0.217607 0.319154 2.7886 34 30 26
-0.309607 0.25366 2.63658 10 10 9
-1.14421 -0.251927 2.81082 60 50 89
-1.22865 -0.0490111 2.66206 94 98 120
0.186589 1.17129 2.95932 124 98 61
-0.745762 -0.761329 2.69392 177 192 200
-0.0746817 -0.0657109 2.43539 84 94 104
0.359624 0.133142 2.68199 110 104 99
-0.908672 -0.116381 2.34564 2 4 3
-1.08774 -0.103533 2.42149 13 12 16
-1.47343 -0.358411 2.78883 78 77 82
-1.39682 -0.0130902 2.9425 24 25 27
-1.41898 0.27092 2.78869 20 26 31
0.285057 0.0820057 2.51383 62 62 60
-1.23483 -1.19798 3.46825 136 139 139
-0.907905 -0.268459 2.38278 34 36 44
-1.32502 -0.134674 2.91693 10 9 12
-1.22175 0.0735526 2.68762 86 102 110
-0.886492 0.345218 2.82179 9 9 9
0.0515791 0.843681 3.39135 78 62 43
-0.968914 -0.879109 3.24332 136 145 148
-1.59984 -0.318267 2.93707 66 56 44
-1.49713 0.0432863 2.91495 162 166 178
-0.972327 -1.13078 3.26509 180 194 206
-0.867717 -0.726616 2.83821 129 140 158
-0.551951 -1.09323 2.99351 82 82 86
-1.02256 -0.334965 2.39798 35 37 42
-1.30274 -0.444229 2.53895 44 48 57
-1.22469 -0.0251884 2.84182 26 27 30
-1.81901 -0.263709 3.46558 135 102 58
-1.33892 0.278711 2.90653 116 130 131
0.592551 1.81945 2.42643 108 82 44
-1.59343 0.990351 2.20347 112 79 30
-1.02491 -0.58299 2.71104 28 32 44
-0.978261 -0.223489 2.37915 53 54 50
0.0677468 0.371265 2.58078 36 28 20
-0.648852 -0.306572 2.58313 98 102 97
-1.61687 0.760974 2.43145 122 95 44
-3.39949 -0.252817 2.61248 133 102 49
-3.30573 -0.17309 2.55985 128 103 50
-1.27074 0.142935 2.75451 27 34 34
-0.51231 1.00657 3.17598 109 78 30
-1.55196 0.796189 2.42671 121 90 37
-0.785642 1.12916 2.47387 112 90 44
-1.6259 0.677849 2.44441 140 122 94
-0.113924 -1.08027 2.98157 169 174 176
-0.0996791 -1.06765 2.96256 172 176 178
-0.535617 -1.02195 2.90836 52 53 54
-0.614517 -1.11566 3.00476 22 28 34
-0.570799 -1.04418 2.95125 21 23 28
-0.643534 -1.10444 3.09743 107 112 126
-1.00061 -1.51911 3.50199 144 148 151
-0.810546 -0.869026 2.68984 170 179 194
0.0260974 -0.30943 2.62536 140 147 147
-0.683033 -0.653734 2.60291 175 188 205
-0.844637 -0.788111 2.72087 39 45 52
-0.736977 -0.693287 2.64754 210 214 224
-0.00563365 -0.319242 2.6944 26 29 33
-0.683541 -0.611776 2.60527 120 120 137
-0.804025 -0.734707 2.72109 184 192 216
-1.08778 -1.22278 3.37333 170 182 198
0.0404112 -0.130523 2.4909 12 12 14
-0.142259 -0.288922 2.64531 128 134 155
-0.864331 -0.917607 3.24085 169 181 194
-0.946883 -0.955188 3.28702 139 148 152
0.399947 0.0866749 2.66067 56 50 37
-0.90796 -0.890321 3.22999 6 10 22
-0.934895 -0.893666 3.29622 68 72 73
-0.314557 -0.0854449 2.40188 118 121 127
-0.561918 -0.276034 2.5296 22 31 29
-0.262527 -0.0106132 2.39168 90 89 93
-0.372464 -0.13078 2.53874 16 14 18
-0.267337 0.0538339 2.37115 40 39 46
-1.10811 -0.898229 3.44807 38 40 52
-0.0668314 0.0990883 2.59639 10 8 4
-0.424411 -0.0702626 2.5398 26 28 39
-0.434187 -0.0876906 2.58249 0 1 3
-0.880754 -0.264465 2.43364 37 37 40
-1.10263 -0.838904 3.45842 34 19 25
-0.437284 -0.0514927 2.54749 8 8 15
-0.440069 -0.018729 2.56038 22 23 33
0.0203726 0.224514 2.56584 34 34 30
-1.13062 -0.798531 3.46404 52 28 36
-0.597144 -0.0803683 2.58472 34 31 27
-0.408828 0.105298 2.55803 38 34 35
-0.0924543 0.257236 2.62794 192 182 212
-1.14481 -0.249716 2.58244 22 21 28
-0.142187 0.295875 2.64607 78 72 84
-0.36154 0.183441 2.67235 4 4 2
-1.34767 -0.30792 2.77314 22 22 24
-1.05847 0.0211613 2.40934 47 46 50
-1.42297 -0.709275 3.96966 35 36 46
-1.44805 -0.66688 4.0048 80 85 101
-1.47262 -0.611247 4.05588 130 89 58
-1.34976 -0.0779511 2.82227 10 10 10
-1.21854 0.0791402 2.68104 24 34 43
-1.13229 0.235749 2.61081 30 32 38
-1.35463 0.0511516 2.89343 13 13 18
-0.158776 0.78802 3.0518 52 44 32
-3.12523 -1.16918 3.75621 122 92 54
-1.48883 0.026104 2.95667 174 174 183
-2.6246 -0.575963 3.37022 125 93 49
-2.32665 -0.35029 3.29671 138 111 66
-2.85312 -0.690296 3.37958 124 96 50
-2.68883 -0.570177 3.34303 120 90 44
-2.36659 -0.352847 3.27654 118 92 47
-1.54012 0.101455 3.59768 107 79 46
-2.65996 -0.484112 3.27082 125 97 52
-2.75541 -0.484184 3.20278 126 95 50
-2.03763 0.151406 2.78008 121 97 66
0.488958 1.76806 2.3224 106 80 44
-0.68886 -1.21025 3.15912 48 48 46
0.294101 -0.215214 2.48436 64 64 64
-0.0541551 -0.323168 2.70224 61 62 60
-0.959857 -1.11514 3.29522 164 174 188
-0.706505 -0.58982 2.59951 116 125 136
-0.924991 -0.817618 3.05132 40 43 53
-1.2496 -1.21566 3.57515 138 148 153
-0.131898 0.276038 2.62244 34 30 34
-1.58592 -0.366373 2.93706 26 25 33
-1.50554 -0.550551 4.10133 140 129 122
-0.163116 0.810108 3.08205 70 56 32
-0.423343 -1.14392 3.10489 84 89 100
-0.839651 -1.33929 3.16969 111 88 84
-0.825499 -0.745577 2.71947 126 130 152
-0.557078 -0.454638 2.47738 14 16 22
0.00131828 -0.0273518 2.47464 142 146 158
-0.837034 -0.186357 2.45343 30 30 32
-1.33453 -0.407725 2.61132 43 46 52
-1.05363 -0.0046801 2.57567 36 37 46
-1.89507 -0.425999 3.61854 128 100 55
-1.51959 0.0334793 2.96629 46 50 57
-1.48882 1.05229 2.18539 115 86 36
-1.58412 1.0735 2.10685 110 82 38
-0.54635 -1.03459 2.97452 42 44 50
-0.912748 -1.4431 3.339 181 197 217
-0.962658 -1.04838 3.28942 202 212 226
-1.21816 -1.22466 3.45348 136 144 150
-0.258945 -0.149554 2.51579 34 44 46
-0.211764 -0.0113649 2.40671 14 16 15
-0.931065 -0.49014 2.63137 14 16 22
-0.912985 -0.469233 2.5949 54 57 61
-0.45884 -0.121257 2.48842 14 14 16
-0.436831 0.000947127 2.5778 24 24 30
-1.19589 -0.332747 2.47912 23 22 26
-1.16156 -0.21656 2.45897 30 29 34
-0.599803 0.126544 2.70389 52 38 20
-1.26794 -0.144136 2.68535 34 26 48
-1.21216 -0.0586936 2.56542 20 18 18
-1.23709 -0.0166405 2.73629 10 10 12
-1.10102 0.247444 2.57233 22 20 21
-1.34708 0.279135 2.83886 118 124 133
0.0873447 0.0384408 2.43639 48 36 24
-0.305786 -0.214994 2.52817 32 34 42
-0.153173 -0.0212746 2.40916 20 20 22
-1.02813 -0.629216 2.74995 70 76 92
-0.374747 -0.114082 2.46054 6 10 22
-1.11059 -0.549506 2.58363 32 37 46
-0.4048 -0.105735 2.5748 20 20 22
-1.14425 -0.808958 3.52123 40 40 51
-0.96589 -0.176902 2.32729 31 30 30
-1.15256 -0.165153 3.05009 34 30 48
-0.757058 0.301692 2.78151 29 26 22
-1.12644 0.146288 2.74126 30 34 40
-2.77184 -0.645328 3.37443 129 102 48
-2.85657 -0.533752 3.21683 136 103 49
-0.675677 0.782507 2.96001 92 66 28
0.0484608 -0.360255 2.57802 104 104 104
-1.32556 0.246327 2.84592 156 165 178
0.167523 1.63747 2.41846 86 58 22
-0.26363 1.36241 2.49702 105 79 41
-3.33087 -0.371366 2.77504 136 110 60
-0.97014 -0.581266 2.76589 41 46 54
-0.01415 0.435663 2.69024 72 52 28
-1.29552 -0.150858 2.79631 50 38 52
0.0126863 0.0259084 2.49038 55 47 38
-0.906051 -0.271165 2.38576 56 61 70
-0.981717 -0.146852 2.48881 28 29 32
0.0522641 0.406568 2.65419 57 42 22
-1.20167 -0.089205 2.8634 26 20 20
-1.23026 0.0471272 2.70059 44 36 44
-0.0658714 0.471413 2.80566 26 26 26
-1.35634 -0.152337 2.79171 22 15 18
-1.82013 0.208933 3.4579 128 102 66
-0.578835 -0.0431167 2.63231 66 63 65
0.302185 0.0762109 2.54258 37 36 36
-1.07363 0.182612 2.50605 32 32 32
-1.52481 -0.496083 4.13819 118 96 63
-1.0347 -0.473001 2.46377 19 23 34
-0.878675 -0.365023 2.52825 42 44 50
0.0409811 0.376417 2.58248 58 56 41
-0.589344 0.249785 2.90533 34 30 18
-1.1221 0.22031 2.57922 42 44 54
-1.42553 0.104396 3.52662 98 86 74
-0.734139 -0.713882 2.63603 182 190 205
-0.934049 -0.41476 2.50546 43 43 53
-0.986715 -0.730965 3.07869 52 56 66
-1.32214 -0.390668 2.64614 33 32 36
-1.54486 0.00201388 3.01328 16 16 18
0.535582 -0.035137 2.74043 115 111 106
-0.933165 -0.659483 2.85661 138 151 159
-2.43354 -0.693416 3.61649 148 122 74
-0.13105 0.931734 3.27989 94 68 36
-1.54 0.21542 2.79025 38 33 31
-2.76852 -0.193423 2.92329 126 98 49
0.194253 1.85346 2.18049 100 74 39
-0.639655 1.31782 2.34442 116 97 52
-2.13714 0.338557 2.6238 122 98 55
-1.25497 0.970049 2.41937 104 74 26
-0.615736 1.47344 2.17774 107 80 38
-0.932519 1.28928 2.21143 115 88 45
-0.482541 1.60837 2.08316 96 68 27
0.118275 -0.111903 2.45372 56 57 52
-1.39702 0.246492 2.82699 9 14 29
-0.289515 1.40001 2.46513 118 91 52
-1.75392 0.589424 2.5876 126 104 54
-2.74407 0.0885355 2.59686 132 102 48
-2.07769 0.677119 2.30144 118 90 34
-0.970016 -0.596165 2.69934 90 100 110
-1.82248 0.552744 2.69662 124 96 47
-0.338058 1.73848 2.01823 110 84 29
-1.39347 -1.01185 3.54103 100 88 62
-0.0427813 0.644022 2.94685 59 50 36
-1.11058 0.610487 2.87928 87 58 18
-0.443207 -1.14342 3.0482 83 86 97
-0.498989 -1.25109 3.19235 38 41 44
-0.588949 -1.24272 3.0931 70 71 73
-0.639968 -1.22255 3.0841 88 88 92
0.151835 -0.414323 2.62163 158 160 159
0.330922 -0.205583 2.48253 24 22 17
-0.920206 -1.32113 3.17106 128 131 134
-0.640127 -1.02369 2.97051 26 34 52
0.0906404 -0.360887 2.56685 88 90 96
0.336342 -0.163873 2.48429 84 84 86
-0.647403 -1.00918 3.02475 220 220 241
-0.772003 -0.896348 2.6888 178 188 198
0.0672529 -0.383412 2.67795 176 178 178
-0.682961 -1.05055 3.11216 114 116 144
-0.73499 -1.03356 3.07383 194 202 212
-0.452855 -0.515606 2.43131 86 88 90
0.188667 0.0458583 2.4105 104 102 95
-1.17703 -1.33601 3.5311 111 106 94
-0.945624 -1.05136 3.26527 160 166 176
-1.26593 -1.11564 3.07207 108 117 136
-0.895574 -0.757677 2.85938 105 112 128
-0.277768 -0.24442 2.56698 47 48 50
-1.22731 -1.18625 3.52389 65 50 32
-1.07765 -1.05041 3.43462 59 61 68
-0.329025 -0.143663 2.52219 4 12 18
-0.400007 -0.112806 2.60099 16 16 18
-1.00058 -0.834835 3.40657 10 12 18
-1.02873 -0.80669 3.37693 35 35 42
-1.08753 -0.8151 3.38235 39 22 26
0.00226924 0.252442 2.5565 160 153 160
0.0490356 0.327962 2.55888 82 64 43
-1.10417 -0.769853 3.49544 10 4 6
-1.05635 -0.730616 3.48046 42 42 47
-0.310448 0.154227 2.47874 71 57 41
-1.02246 -0.661426 3.42174 38 38 42
-1.13639 -0.80658 3.59173 18 19 25
-1.15623 -0.753208 3.62565 25 27 32
-1.18522 -0.718868 3.63814 26 29 37
-1.24211 -0.322883 2.69387 28 26 42
-1.45473 -0.82212 4.06569 66 52 34
-1.50788 -0.492274 4.21872 116 84 52
-1.67191 -0.54066 4.03301 118 88 50
-1.52327 -0.147096 2.93229 110 108 114
-1.11993 0.238308 2.53687 68 73 79
-2.54543 -1.01213 3.92877 134 110 68
-1.66689 -0.438224 4.31224 116 84 46
-1.33394 0.243879 2.83195 60 72 90
-1.31757 0.255939 2.82241 83 90 112
-1.36622 0.26908 2.85464 81 84 100
-1.45003 0.211249 2.9724 20 20 24
-0.401342 -1.08235 2.98871 92 100 112
-0.171756 -0.584571 2.70589 102 102 85
-0.0386563 -0.267696 2.625 40 43 49
-0.966342 -1.11715 3.26541 182 192 212
-0.315148 -0.096421 2.426 122 124 136
-0.966675 -0.483033 2.58913 34 40 48
-1.00954 -0.543622 2.69421 42 46 55
-1.00032 -0.442698 2.47365 29 29 40
-0.0203542 0.247103 2.57417 51 47 46
-1.06539 -0.0398375 2.40456 82 84 89
-2.60427 -0.935775 3.79736 144 119 75
-0.824524 -1.52536 3.42966 152 156 159
-0.569023 -0.966149 2.90313 86 88 92
0.0793408 -0.373199 2.62221 92 86 82
-0.775415 -1.00166 3.04917 92 100 115
-0.693527 -0.661175 2.60309 80 86 108
-1.12899 -0.546564 2.54747 29 34 46
-1.13595 -0.559504 2.60837 56 61 78
-1.018 -0.717543 3.10929 40 42 50
-1.20028 -0.293334 2.60346 117 100 130
-0.642805 0.225943 2.78027 56 53 42
-1.07179 -0.0303683 2.87921 17 15 16
-1.28707 -0.123989 2.8306 22 20 29
-0.0544022 0.685164 2.98978 63 52 36
-1.14366 0.143302 2.75217 40 54 58
-1.51198 -0.0562018 2.95823 129 128 141
-2.7812 -0.640435 3.34058 120 90 40
-2.96685 -0.782043 3.41246 117 87 38
-3.05056 -0.716066 3.3122 138 107 56
-2.79186 -0.499117 3.20615 122 88 40
-3.45141 -0.940958 3.36402 121 90 38
-3.40769 -0.828564 3.25241 114 79 28
-3.6268 -0.973819 3.309 124 88 40
-1.2054 -1.18259 3.46427 54 52 58
-1.62348 -0.0682297 3.01506 110 89 61
-3.3295 -0.402937 2.92157 121 94 50
0.032286 0.23821 2.55438 41 38 30
-1.27688 0.0112914 2.6972 26 21 18
-1.62748 -0.151018 3.01604 92 74 51
-1.93355 0.337393 3.53449 126 99 58
-0.688167 0.129013 2.58396 62 34 8
-1.16135 -0.321708 2.76689 68 62 81
-1.29013 0.108043 2.81708 34 38 46
0.0604547 0.261161 2.55531 12 8 4
-1.17836 0.11775 2.70648 50 54 61
-0.616375 -0.131164 2.53972 24 25 26
3.43153 -3.5064 4.44439 156 156 155
-0.819779 -0.783511 2.7283 122 124 150
-0.221424 1.05874 3.35693 98 72 39
-1.12533 -0.593166 2.79783 34 38 49
-1.20444 -0.588898 2.692 30 32 44
-3.22455 -1.15572 3.71151 122 94 48
-2.44897 -0.180358 3.06699 139 108 58
-1.62611 0.701733 2.47613 117 87 36
-1.32372 -0.458261 2.55163 61 62 66
-0.332468 -1.0055 2.85765 142 146 148
-0.577033 -1.27628 3.17891 75 77 78
-0.37208 -1.02582 3.02228 160 162 168
-0.682856 -1.20992 3.07444 26 26 28
-0.608693 -0.81813 2.61855 88 85 72
-0.872051 -1.28471 3.15969 164 162 167
0.0616328 -0.330707 2.5642 29 29 31
0.350272 -0.0540617 2.51733 131 118 102
0.206226 -0.0863079 2.48808 80 82 78
-0.779378 -0.994079 3.05858 95 98 114
-0.888444 -0.82956 2.76328 202 210 228
-1.03534 -1.1747 3.34452 96 101 127
-1.13181 -1.21699 3.4282 156 161 181
-0.937925 -0.888361 3.24971 104 102 96
-0.392304 -0.0920131 2.54069 20 23 32
0.0371312 0.262265 2.54859 73 62 48
-1.15351 -0.569454 2.63724 30 33 46
-0.966737 -0.707873 3.26163 48 49 54
-1.02579 -0.691298 3.45434 39 38 42
-1.23108 -0.344785 2.46913 140 145 144
-1.18728 -0.300828 2.68322 90 83 105
-0.715394 0.0857416 2.53781 43 38 33
-1.35181 0.229415 2.84057 46 50 59
-2.73978 -1.00147 3.78821 122 97 52
-3.2307 -1.15506 3.67725 123 95 52
-3.74752 -1.50264 3.79634 145 119 76
-2.78698 -0.648189 3.36605 122 92 44
-2.76764 -0.480505 3.23202 116 84 36
-2.866 -0.521386 3.22399 115 82 33
-1.04031 -0.53649 2.66361 28 32 42
-1.01917 -0.668323 3.10429 34 36 46
-1.16276 -0.592073 2.81473 24 30 38
-1.1891 -0.596326 2.84343 28 32 40
-1.59413 -0.267646 3.01918 36 20 10
-3.33157 -0.392611 2.87626 125 96 46
-3.35764 -0.367237 2.82561 134 107 56
0.0371046 0.410057 2.63855 72 55 28
-1.13181 0.0517997 2.62481 64 68 83
0.153896 -0.222607 2.4892 31 31 30
-1.21233 0.688258 2.72744 98 64 14
-1.19244 -1.3875 3.56635 146 141 138
-0.627734 -0.269886 2.57894 108 114 130
-0.186777 1.08565 3.40251 104 77 42
-2.46841 -0.177379 2.9954 130 102 63
-0.548577 -0.969792 3.05486 150 158 166
1.33815 1.45176 3.07445 130 101 54
-1.26704 -0.559161 3.74052 34 36 46
-0.0540701 0.667684 2.9769 66 54 34
-2.67248 -0.930698 3.87981 138 113 68
-0.281522 -1.09639 3.13352 125 128 132
-1.2792 0.00115896 2.72471 24 16 16
-1.00427 -1.11878 3.34402 123 124 136
-0.624006 -1.13686 3.15409 43 49 61
-0.241919 -0.367594 2.69155 28 28 24
-1.37094 -0.603058 2.65268 60 63 71
-2.97756 -1.00161 3.67745 134 106 64
-2.15816 0.259805 2.9214 122 92 44
-3.68328 -0.962182 3.31299 118 84 42
-0.178203 -0.915882 2.82419 98 98 95
-0.238652 -0.899615 2.76927 64 64 65
-0.20106 -0.864674 2.77467 88 92 96
-0.487863 -1.21144 3.14511 82 84 86
-0.511217 -1.40832 3.57205 104 102 102
-0.419445 -1.05145 3.00429 66 68 71
-0.784769 -1.51361 3.4384 176 178 182
-0.597257 -1.16389 3.04924 148 150 152
-1.04129 -1.53893 3.50604 170 163 160
0.000460581 -0.259989 2.5503 130 136 134
-0.785887 -1.03723 3.06434 144 151 144
-0.786452 -0.526293 2.68215 33 44 54
-0.349556 -0.139042 2.51906 41 54 58
-0.750107 -0.48007 2.63469 30 34 41
-0.844168 -0.588988 2.74867 115 126 142
-0.991185 -0.501354 2.6964 52 55 68
-1.05767 -0.51613 2.64584 42 46 57
-0.923363 -0.302472 2.38973 78 80 90
-0.960047 -0.433081 2.83028 76 80 84
-1.27477 -0.562358 2.57817 68 88 96
-1.12023 -0.644448 3.56248 14 16 21
-1.42105 -0.899365 3.989 131 108 78
-1.15219 -0.0179992 2.67921 62 68 76
-1.20402 -0.0157693 2.87655 14 14 14
-1.33053 0.245795 2.83321 39 43 68
-1.41459 0.312755 2.74534 26 24 30
-1.39266 0.34066 2.9045 16 8 8
-0.582906 1.18896 2.52031 118 94 46
-2.34639 -0.303871 3.2582 128 100 51
-0.792996 1.11466 2.465 124 102 54
-2.58828 -0.376055 3.18304 134 104 51
-2.81006 -0.576566 3.28613 115 84 32
-3.91472 -1.54367 3.82492 140 110 60
-0.656122 1.41388 2.20577 114 86 37
-0.341574 1.75032 2.31313 105 76 28
-1.6295 0.592837 2.61322 128 96 46
-3.68835 -1.04111 3.43618 140 108 52
-3.66313 -0.991617 3.32702 128 96 42
-3.97721 -1.21096 3.45024 132 100 45
-1.75567 0.80216 2.31359 116 86 35
0.257833 -0.169389 2.48153 14 14 12
-1.21195 -0.0782886 2.82249 34 29 26
-0.110379 -0.884888 2.84559 102 103 98
-0.443741 -1.09305 2.93064 65 71 78
-0.982194 -0.472413 2.60934 48 52 61
-2.14141 -0.00631347 2.89046 140 115 62
-3.41761 -0.821444 3.27129 116 82 30
-2.40433 0.164999 2.68943 135 109 54
-2.53795 0.0932745 2.7473 136 112 56
-0.735643 -0.521304 2.66503 155 100 108
-1.62856 0.707412 2.49962 130 102 45
-2.27496 0.518428 2.82529 142 114 58
-1.93133 0.699836 2.32712 138 106 51
0.521972 -0.230665 1.3091 156 158 157
-0.129279 1.05383 3.40575 106 76 37
-1.18044 0.338283 2.71979 26 27 32
-1.20978 0.0617641 2.93034 11 10 13
-0.926362 -0.816344 2.93481 96 100 110
-1.07809 -0.646122 3.58059 30 32 34
-1.26771 0.0695733 2.83063 18 18 23
-1.39203 0.343571 2.84039 20 18 18
0.118333 -0.46463 2.91976 114 118 116
-0.742866 -0.0866634 2.49924 20 20 19
-1.15481 -0.105018 2.54811 21 20 19
-0.972352 0.0325288 2.92586 18 16 28
-1.03488 0.0671973 2.65613 22 22 29
-1.19567 0.00307448 2.82063 34 34 39
-1.10773 0.162109 2.5803 20 20 24
-1.38695 0.244846 2.88208 20 24 34
-0.942788 1.08993 2.42892 123 98 49
-1.76676 0.537666 2.62079 120 90 36
-1.47107 0.852654 2.40853 121 94 41
-3.38416 -0.858867 3.43956 137 106 52
-3.24868 -0.688547 3.2084 129 93 42
-1.19688 1.36928 2.65602 120 87 37
-1.22491 -0.525473 2.60998 52 58 62
-1.34155 0.370144 2.80854 70 56 29
-1.8196 0.509558 2.5899 135 106 51
-0.853359 1.09653 2.47356 120 96 42
-1.22402 1.03431 2.34299 129 106 52
-1.53087 0.955277 2.25051 132 104 48
-1.76949 0.88226 2.22295 130 100 42
-0.46804 -0.98007 2.96593 8 10 16
-1.13482 -0.601023 2.9874 68 74 85
-0.95741 1.3191 2.14868 108 76 16
-0.986734 1.23933 2.19544 116 84 22
-0.891688 -0.834626 2.87952 62 68 84
-0.109216 -0.138299 2.65131 19 22 24
-0.926018 -0.697107 3.13543 36 40 51
-1.0779 -0.635827 2.68761 81 89 96
-1.17844 -0.60296 3.07774 64 68 79
-1.06605 -0.621187 3.50915 20 20 22
-1.32315 -0.590768 2.89746 37 38 48
-1.20505 0.871226 2.52221 119 98 46
-0.933781 -0.743108 3.26874 46 47 54
0.113797 -0.461717 2.90117 105 108 106
0.0884768 -0.262104 2.50357 84 86 112
0.0608128 -0.252354 2.56289 28 30 38
0.00713403 -0.168848 2.57452 40 46 59
-0.735466 -0.537135 2.68125 68 70 82
-1.0696 0.0290473 2.59547 78 80 78
-1.15714 0.0149068 2.8482 59 68 82
-0.381391 1.37858 2.4488 110 86 41
-0.770819 1.15849 2.45847 112 88 43
-0.525085 1.47579 2.20612 108 79 33
-1.42772 0.832183 2.44976 115 88 38
-2.39797 0.236721 2.59769 134 108 52
-2.90239 -0.0852215 2.71652 128 102 47
-1.03937 -0.337348 2.35764 40 42 40
-0.56432 -1.18328 3.01526 126 127 128
0.104689 -0.427333 2.8032 107 110 109
-0.668566 -0.415458 2.57848 98 106 118
-0.726196 -0.299066 2.56899 110 60 24
-0.157316 -0.82662 2.68365 130 136 152
0.290247 -0.0991493 2.53116 71 72 68
-0.347615 0.177803 2.66143 6 5 4
-1.35176 0.360411 2.87852 46 36 20
-1.52613 0.962245 2.25316 136 106 50
-0.841633 -0.406281 2.56141 23 25 28
-0.98353 -0.435759 2.54169 55 58 70
-1.38248 -0.364841 2.53078 18 18 18
0.445276 1.6071 2.58314 130 102 56
-1.08792 0.621001 2.77135 106 72 23
-0.452135 -0.407476 2.44886 144 144 140
-1.00085 0.32078 2.7621 12 11 12
-1.25419 -1.17164 3.97555 123 110 94
-1.10594 -0.175747 2.68447 18 17 20
-1.26226 -0.198204 2.72071 28 19 34
-1.30602 -0.45123 2.64793 40 42 48
-0.398204 -0.994652 2.76541 145 150 158
0.231149 0.0264542 2.46185 123 125 123
-0.87637 -0.604631 2.75742 80 93 108
-0.955354 -0.644293 2.78965 170 188 198
-1.01382 -0.813823 3.32833 10 14 20
-0.951046 -0.418781 2.4451 26 30 34
-1.00322 -0.357438 2.28315 16 18 26
-1.20233 -0.539224 2.5361 180 193 206
-1.09795 -0.415493 2.39765 42 44 50
-1.13947 -0.465312 2.51188 64 66 73
-1.21277 -0.521387 2.56218 70 79 88
-1.31917 -0.604807 2.69195 34 38 42
-1.27659 -0.47574 2.5122 112 118 132
-0.861176 -0.125422 2.37691 18 18 18
-1.14972 -0.0308378 2.92012 41 35 33
-1.20718 0.0142046 2.57783 81 90 117
-1.79096 -0.377264 3.71738 135 104 56
-1.36841 0.219213 2.87448 32 36 56
-3.43623 -0.807003 3.16538 132 101 47
-3.74358 -1.00784 3.58195 127 90 37
-3.10226 -0.523651 3.2181 146 122 68
-0.509494 1.44292 2.23687 122 96 46
-0.247218 1.72898 2.0553 108 80 36
-0.275865 1.76259 2.00153 100 76 32
-0.176645 -0.797353 2.69294 132 140 149
-0.681587 -1.17044 3.01904 26 28 32
-0.861352 -0.380963 2.55734 32 32 36
-3.2469 -0.358662 2.84282 149 124 70
-0.600639 -1.09119 2.99107 17 18 22
0.163082 -0.0648349 2.49917 62 60 57
-1.04568 1.06146 2.37976 110 81 22
-1.13053 1.14973 2.23562 113 80 22
-0.414593 1.70405 2.0027 114 86 28
-1.44895 1.02602 2.20072 114 78 20
-0.0658606 -0.880978 2.85994 78 83 88
-1.06898 -0.636024 2.85918 90 103 111
-1.09074 -0.617725 2.96733 83 92 99
-0.992489 -0.422945 2.44037 38 42 52
-0.861061 0.715074 2.87381 106 79 34
-2.01074 0.495935 2.52036 126 94 38
-0.847514 -1.52608 3.4297 156 160 162
-0.835697 -1.35341 3.15087 108 68 70
-0.186979 -0.776596 2.65763 156 164 176
-0.493976 -0.922449 2.63951 128 130 126
-0.0284918 -0.705504 2.76557 73 77 76
-1.12407 -1.44494 3.38344 125 124 130
-0.194263 -0.610019 2.64571 36 32 5
-0.406835 -0.489043 2.46525 54 52 24
-0.352163 -0.460083 2.54757 58 56 18
-0.461608 -0.350266 2.47876 49 45 42
0.319375 0.0685388 2.55332 117 112 105
-0.274506 -0.164296 2.48232 128 136 155
-0.842454 -0.0339421 2.43807 12 12 12
-0.942147 -0.002263 2.39667 12 12 12
-0.0903341 0.583694 2.89671 24 24 24
-1.07952 0.172922 2.47086 100 100 100
-0.166452 0.979283 2.99865 119 88 49
0.0240242 1.23377 2.80265 131 101 58
0.666307 1.79002 2.55326 107 78 36
-0.2793 1.40221 2.4798 116 92 48
-2.46257 0.144506 2.66912 137 112 54
-2.22888 0.321812 2.62318 140 113 54
-1.36817 0.814883 2.50914 110 80 26
-0.751271 -0.441043 2.58504 151 160 168
-0.224146 -0.0502908 2.38387 50 70 68
-0.262341 -0.0701074 2.38128 8 10 14
0.0118974 0.434293 2.65268 71 50 26
-1.22514 0.909742 2.48096 120 96 40
-2.44104 0.211653 2.59389 140 113 56
-2.86306 -0.03263 2.60203 138 108 54
-2.6199 0.125713 2.60464 133 106 48
-1.4643 0.860325 2.41564 124 98 40
-1.9824 0.582132 2.47405 134 106 48
-1.17272 1.06644 2.33843 122 96 42
-1.65471 0.834301 2.35374 128 97 42
-0.424604 -0.212696 2.54163 10 10 10
0.0625664 0.234392 2.5744 24 22 17
-0.165837 0.130681 2.49482 19 19 18
-0.592578 0.018151 2.61541 146 142 136
-0.113709 0.405848 2.68217 72 58 36
-0.618061 -0.151748 2.57192 51 55 52
-1.03108 1.10405 2.38447 124 95 37
-0.97172 -0.177377 2.60638 24 24 28
-1.12856 -0.253967 2.66597 105 84 94
-1.17895 -0.185186 2.70749 114 106 114
-0.958647 -0.201005 2.69219 16 16 16
-1.04774 -0.182319 2.57808 36 36 34
-0.218734 -0.522099 2.63481 78 72 29
-0.309218 -0.603627 2.52868 114 116 73
-0.962787 -0.457499 2.50585 31 34 44
-1.23592 -0.526785 2.51453 64 70 81
-0.125472 0.0950498 2.54924 9 8 8
-1.41052 -0.538534 2.73416 12 16 20
-0.375466 -0.11485 2.50451 12 16 28
0.302665 0.117016 2.5908 68 56 37
-2.47007 0.113369 2.68907 133 110 56
0.0691389 -0.305365 2.67182 30 30 32
0.172414 -0.0862373 2.4592 74 74 71
0.442663 0.027722 2.68475 83 74 59
0.0468966 -0.0798505 2.47104 43 44 47
-1.01546 -0.786586 3.29044 58 63 74
-0.204671 -0.0780942 2.41292 63 64 76
-1.10883 -0.869369 3.50308 66 63 78
-0.665017 -0.344702 2.59299 154 161 159
-1.12317 -0.6366 2.77395 29 33 44
0.0916589 0.259725 2.54709 20 16 12
-0.754065 -0.115119 2.5156 20 20 20
-0.956957 -0.142387 2.32616 36 38 28
-0.905309 -0.100133 2.36563 10 10 10
-3.50757 -0.416206 2.71787 134 104 48
-3.11509 -0.132199 2.59031 134 102 43
-3.40099 -0.251644 2.59956 138 106 48
-3.00169 -0.0147376 2.53396 136 108 50
0.0305446 -0.454975 2.84066 61 68 66
0.310831 1.2476 2.84335 128 98 54
-2.09449 0.329641 2.54374 134 110 53
-1.51073 0.685143 2.57564 134 110 52
-2.09714 0.365371 2.62545 138 114 54
-2.79542 -0.0256122 2.66504 136 108 52
-2.26997 0.319226 2.57933 134 107 47
-3.01677 -0.0842205 2.6063 128 98 38
-2.5978 0.163315 2.56504 138 107 48
-1.76755 0.696367 2.41859 122 94 40
-1.95914 0.58753 2.4418 130 100 42
-2.81529 0.156617 2.46812 141 110 50
-0.712029 -1.16131 3.13354 95 102 104
-0.676902 -0.320463 2.51281 64 60 48
-0.948074 1.07607 2.38878 109 81 22
-0.727986 -0.487305 2.59258 134 144 160
-1.12265 0.194346 2.59052 29 30 32
-0.0504778 1.11531 2.85005 134 105 60
-2.69306 -0.00682919 2.6745 146 120 62
-2.30031 0.258859 2.60798 139 112 52
-1.05791 1.12125 2.34105 114 95 44
-0.140914 -0.975234 2.97277 71 74 73
-0.288218 -0.617239 2.54853 126 131 60
-0.325682 -0.597444 2.52494 132 134 76
-0.249222 -0.584057 2.59464 95 96 44
0.361034 -0.253991 2.53458 110 114 118
-0.246321 -0.550631 2.60532 141 142 69
-0.273128 -0.540767 2.5937 126 120 50
0.196142 -0.11673 2.43247 15 15 15
-0.283133 -0.415126 2.62396 67 68 64
0.381159 -0.0703696 2.59611 85 88 91
0.440528 -0.0190932 2.60665 139 130 120
0.438429 -0.00421603 2.62871 115 106 90
-0.986614 -0.772673 3.02351 56 58 68
0.407532 0.0846758 2.68969 108 90 72
0.16783 0.0674409 2.40831 60 48 34
0.384164 0.107705 2.68075 145 131 111
0.273801 0.122493 2.56647 40 30 19
-0.856575 -0.415702 2.58442 22 24 24
-0.60721 -0.297144 2.63672 62 66 65
-0.595832 -0.211813 2.62376 42 46 44
-1.04242 -0.339359 2.35568 30 32 32
-0.628442 -0.179623 2.54164 87 90 86
-0.589662 -0.14825 2.56216 28 32 34
-1.30725 -0.436266 2.55216 18 14 12
-0.660758 -0.140945 2.55624 24 24 14
0.214726 0.247802 2.66903 9 4 0
0.150461 0.25947 2.62293 10 6 4
0.0751028 0.339443 2.60655 112 108 105
0.082023 0.379749 2.63935 42 35 26
-0.506894 0.0868835 2.7521 10 10 10
-0.896889 -0.0371061 2.49569 6 6 6
-0.149491 0.307484 2.64674 14 11 3
0.246145 0.438692 3.05631 46 36 23
-0.432321 0.265095 3.0258 11 11 11
-0.724155 0.260596 2.77443 53 45 28
-0.76881 0.281877 2.77332 38 34 28
0.129638 0.674243 3.20404 72 58 40
0.107269 0.714951 3.26282 72 66 54
-1.10919 0.61132 2.8532 104 69 13
-3.07737 -0.0768244 2.52503 136 110 58
-2.31255 0.291878 2.57401 137 112 56
-0.0561388 1.32685 2.65601 118 86 42
-1.66806 0.699847 2.54202 132 102 42
-2.89676 0.325399 2.20232 130 100 46
-0.367049 -0.524966 2.50183 67 60 20
0.0255178 -0.274975 2.53528 122 124 126
0.3946 -0.103891 2.58082 81 76 72
-0.845356 -0.636206 2.77779 50 57 60
-0.820797 -0.439813 2.59548 62 66 78
-0.750522 0.255823 2.74636 20 16 12
-1.27031 -0.21941 2.67142 28 19 15
-1.56979 -0.428299 2.85619 118 101 77
-0.00824255 0.878659 3.22844 102 78 40
-0.207629 -0.56237 2.61092 55 54 23
-0.177651 0.191719 2.65357 26 26 26
-0.847293 -0.448935 2.55362 46 52 62
-0.946317 -0.496851 2.57368 42 45 49
-0.846188 -0.345912 2.45631 21 23 26
-0.15138 -0.616577 2.68011 126 129 76
0.0908997 -0.393987 2.58954 111 108 106
0.502804 1.49409 2.67469 129 102 56
-1.11521 1.11105 2.35528 123 101 52
-2.46712 0.198168 2.57824 134 107 50
-0.295684 -0.472718 2.59683 104 101 38
-0.420668 -0.309387 2.53001 36 40 33
-1.06887 -0.413586 2.4102 212 214 208
0.396913 0.152918 2.83974 81 62 34
-1.54837 -0.526153 2.96441 155 128 86
-0.888785 0.0354523 2.38884 6 6 6
-0.64306 0.239652 2.87341 149 140 116
-0.709853 0.465029 3.24734 26 16 3
0.0823183 0.85048 3.57772 64 45 22
0.351587 1.07307 3.11992 124 98 54
-0.249799 -0.649273 2.62856 124 128 66
-0.153174 -0.620204 2.6952 140 142 78
-0.194074 -0.593439 2.66138 94 94 49
-0.211687 -0.564287 2.62978 128 130 72
0.372071 -0.232142 2.49672 146 150 154
-0.200145 -0.531576 2.64201 114 116 61
0.351799 -0.211995 2.54009 40 40 38
0.172732 -0.239572 2.48896 36 38 35
-0.264059 -0.488706 2.61704 135 134 72
-0.45047 -0.406393 2.41548 148 152 138
-0.812826 -0.637151 2.81261 18 21 29
-0.711165 -0.535562 2.67883 50 40 56
-0.897467 -0.652646 2.8049 60 60 64
0.0886537 -0.0431538 2.44901 56 58 58
0.314719 0.113416 2.53365 67 56 42
-0.786873 -0.366395 2.58631 40 40 38
-0.0529743 -0.0170335 2.50924 10 10 10
-0.534161 -0.31201 2.87096 14 14 9
0.361531 0.179037 2.76811 142 126 108
-0.204781 0.0258772 2.48559 10 10 8
-0.622475 -0.174572 2.66351 105 107 99
-0.875895 -0.24015 2.6259 36 38 36
-0.567216 -0.142324 2.75198 15 15 15
-0.562211 -0.0708881 2.6862 20 20 20
-0.714371 -0.0943022 2.52801 9 9 9
-0.0765909 0.170601 2.5832 4 4 4
0.257956 0.259913 2.78361 13 8 5
0.30939 0.282993 2.82883 58 48 30
-0.173663 0.166801 2.62505 32 32 28
0.296209 0.3212 2.88267 66 54 37
-0.865487 -0.0972963 2.56239 16 16 16
-0.0403444 0.296506 2.55904 34 28 22
-0.90379 -0.054614 2.47954 6 6 6
-0.919775 -0.0442761 2.68392 6 6 6
-0.927575 -0.043198 2.73245 6 6 6
0.162365 0.45686 2.95083 12 8 4
-0.0258679 0.455439 2.7629 23 22 22
-1.62972 -0.190299 2.95783 144 126 90
-1.25752 0.0755735 2.75616 51 42 37
-0.213256 0.703667 3.01815 18 17 15
-0.17374 0.785872 3.03663 83 71 48
-0.92804 0.526631 2.95145 46 29 9
-0.161726 0.842287 3.08975 50 28 2
-0.272576 1.40444 2.47222 124 96 50
-0.0575388 -0.241027 2.55807 37 41 43
-0.464373 -0.187388 2.53994 14 16 16
0.166674 0.217053 2.57532 10 6 2
0.28399 0.35411 2.95787 106 96 79
0.19945 0.380059 2.86254 10 7 3
-0.926903 -0.0125516 2.7271 7 7 7
-0.965933 0.0630027 2.5853 15 15 15
-0.748209 0.272779 2.86494 84 72 54
-0.00193306 0.709374 3.11503 6 3 0
-1.33826 0.908563 2.41983 132 102 36
-0.880323 1.20689 2.34804 137 114 50
-0.849882 0.248738 2.90858 30 30 26
0.287784 0.198986 2.71885 22 19 14
-1.43659 -0.441966 2.5838 178 166 148
-0.182395 0.154778 2.79522 27 27 27
-0.922519 0.0844921 2.6766 6 6 6
-1.17014 0.397106 2.79455 24 22 19
-0.173786 0.980057 2.95737 117 82 34
-0.212344 1.25536 2.65611 124 93 46
0.697474 1.81651 2.6307 116 92 51
-1.42389 -0.504873 2.63392 168 160 140
-0.854513 -1.1601 3.14171 192 205 216
-0.211927 0.127374 2.502 10 10 9
0.189292 0.522748 3.00151 35 30 20
-1.45028 0.196976 2.91548 64 70 78
-0.00303787 0.881765 3.20375 102 78 42
-0.352556 0.817974 3.19571 111 80 34
-0.0668736 0.981373 3.24213 126 96 52
-1.15565 -0.305513 2.69389 53 44 55
-1.20967 -1.11135 3.62714 50 52 66
-0.553966 -0.262067 2.56264 27 27 32
-1.07902 -0.0515864 2.94641 14 14 12
-0.917139 -0.233437 2.54513 48 48 46
-0.6051 0.30334 2.86364 11 11 11
-1.12756 -0.516395 2.64049 130 132 133
-0.400791 0.086447 2.46542 49 52 56
-1.86195 0.848641 2.16013 130 100 44
0.1017 -0.613192 2.8918 140 138 124
-0.8181 -0.430925 2.60645 34 37 46
-0.70782 -0.368493 2.56879 52 60 61
-0.752819 -0.301314 2.60094 120 66 12
-1.13375 -0.379342 2.51551 121 134 142
-0.610536 0.18374 2.72926 63 52 31
-0.25612 0.666789 3.15911 12 12 10
-2.47463 0.164772 2.6159 138 112 58
-3.04876 -0.0510925 2.52524 130 104 50
-2.21159 0.357496 2.55636 144 118 60
-1.41631 0.715711 2.59819 128 98 38
-1.49567 0.751037 2.50689 135 107 47
-1.55088 0.755589 2.47471 128 105 44
-1.80148 0.669714 2.4438 140 115 54
-2.89037 0.268591 2.26817 135 105 44
-0.854533 1.10393 2.49834 118 85 33
-2.09467 0.651479 2.27193 140 114 50
-1.9811 0.695827 2.29584 140 112 52
-1.91318 0.73241 2.35089 128 97 38
-1.65519 0.825365 2.33171 132 105 46
0.00148592 -0.299289 2.57343 38 44 47
0.087696 -0.0982268 2.43386 12 12 10
-0.79029 -0.499259 2.74089 170 184 190
-0.84626 -0.351016 2.693 63 62 62
-0.627892 -0.125738 2.55711 50 50 42
-0.935853 -0.163893 2.69305 6 6 6
-2.03158 0.545967 2.43111 136 106 48
-2.85265 0.254566 2.26085 144 116 56
-0.898016 1.06762 2.50042 134 112 51
-1.86382 0.711208 2.35987 135 108 46
-2.12516 0.633244 2.28393 141 114 50
-2.02946 0.667777 2.28282 130 104 42
-0.941073 1.16391 2.36177 136 116 54
-2.17193 0.707905 2.17229 134 107 45
-0.654815 -0.158826 2.42666 96 98 86
-1.57925 0.719 2.4936 138 112 52
0.0606487 -0.349151 2.50971 160 160 161
0.0385979 -0.349926 2.51469 188 190 192
-0.34299 -0.0956842 2.39401 18 22 34
-1.19537 -0.48833 2.45049 190 182 171
-1.23404 -0.540039 2.53012 190 182 168
-0.64433 -0.244395 2.53352 154 169 179
-0.469751 -0.275853 2.84435 22 22 20
-0.189561 0.0886172 2.45832 6 5 6
-1.35489 -0.415491 2.46617 174 158 138
-0.612387 -0.0908104 2.54873 52 54 42
-0.206574 0.0910815 2.59561 6 6 4
-0.24488 0.192263 2.62298 28 28 28
-0.191081 0.154809 2.78349 24 24 24
0.222842 0.331085 2.79817 10 7 3
-0.496615 0.0750741 2.89217 7 7 7
-0.182529 0.285907 2.7272 8 8 8
-0.622707 0.11228 2.99064 62 49 26
-0.978177 0.127709 2.56778 10 10 10
-0.987679 0.130128 2.60517 10 10 10
-1.1449 0.040819 2.7904 38 41 61
-1.22086 0.0628253 2.80617 112 116 94
-0.277463 0.648422 3.06304 42 42 42
0.0741042 0.804212 3.37213 100 76 36
-0.778093 0.797047 2.85453 111 74 12
-1.21949 0.910321 2.8011 141 118 48
-0.986884 0.00306447 2.66482 16 16 16
0.139863 0.611209 2.79016 73 61 47
-0.0459769 0.976074 3.12141 134 104 48
-1.02433 -0.563882 2.62875 92 96 111
0.252254 0.417935 2.98867 124 112 96
-1.13751 0.114042 2.71243 126 111 138
0.16709 0.576482 3.06046 52 42 36
-0.806962 0.273733 2.85778 21 20 18
-1.20044 0.168376 2.87909 114 118 122
-0.839814 0.332055 2.88823 88 36 13
-0.369489 0.614742 3.15635 79 76 78
-1.11897 0.408275 2.90213 16 16 15
0.0233712 0.880173 3.24574 116 92 52
0.0141085 0.893706 3.4219 125 94 46
-0.0584713 1.01564 3.20041 144 115 65
-0.920614 -0.838579 2.9163 118 124 142
-1.27605 -1.25355 3.51083 108 118 118
-0.877973 -0.402792 2.52478 16 16 19
-0.811553 -0.285079 2.4509 21 22 22
0.266092 0.411845 3.09312 70 62 49
-0.0302021 0.503351 2.79527 16 16 16
-1.34054 0.00239557 2.86878 35 33 32
-0.467238 0.305489 3.14622 12 12 12
-0.25708 0.684603 2.99762 18 18 16
-0.999319 0.030298 2.70069 34 37 41
-1.57132 0.1168 3.03726 66 54 50
-0.775458 -0.383971 2.64387 88 89 89
-1.52382 -0.433728 2.74513 132 111 79
-1.41745 0.344655 2.99912 86 70 36
0.0192678 1.23608 2.78528 137 109 66
-0.854316 -0.4935 2.60125 140 148 155
0.182101 -0.259765 2.51968 26 26 26
0.0910757 -0.210443 2.55262 106 107 106
0.0837518 -0.061819 2.41209 82 80 78
-0.822303 -0.671094 2.82756 68 68 76
-1.09572 -0.603057 2.61551 142 146 146
-0.958205 -0.334412 2.36466 121 124 135
-1.15107 -0.451757 2.41312 150 152 152
-0.92434 -0.319919 2.41399 118 122 132
0.305922 0.135884 2.61814 37 36 36
-0.907722 -0.277994 2.39616 90 91 100
-0.459838 -0.362289 2.89781 26 24 24
-0.80489 -0.159416 2.37745 28 28 27
-0.777663 -0.144128 2.38643 22 22 22
-0.52038 -0.244811 2.75893 8 8 4
-1.35495 -0.485977 2.55437 150 144 138
-0.905562 -0.175582 2.42255 22 22 24
-0.847681 -0.118727 2.39925 52 52 48
-0.571804 -0.113583 2.66883 28 28 26
-1.19483 -0.289752 2.53919 40 39 40
0.284679 0.331282 2.72071 114 109 110
-0.94421 0.0314088 2.36941 32 32 32
-0.881341 0.0707821 2.36384 6 6 6
-0.592493 -0.0790949 2.90864 206 204 200
-0.886708 0.0867135 2.41401 6 6 6
-0.944488 0.0947524 2.38021 13 13 13
-0.290658 0.274932 2.7046 12 12 12
-0.998242 0.243704 2.56096 10 10 10
-1.03665 0.359757 2.55233 26 26 26
-0.771419 0.292706 3.10299 19 15 10
0.125799 0.691474 3.25375 64 54 47
-1.19647 0.175595 3.19865 22 21 20
-0.357884 0.540417 3.1655 21 21 21
-0.917557 0.38214 2.99854 16 16 14
-0.123285 0.736909 3.04739 8 8 6
0.0992612 0.752709 3.31477 99 84 64
-1.1598 0.374332 3.00095 20 19 18
-0.00126141 0.923537 3.46778 132 102 54
-0.143675 1.14559 2.805 136 111 60
-1.20873 -1.29057 3.54935 68 70 62
-0.885043 -0.376517 2.51837 30 30 31
-0.891691 -0.264652 2.42346 42 43 54
-0.258244 0.101908 2.39886 55 54 62
-0.952949 -0.0530101 2.36741 66 67 72
-1.17259 -0.140498 2.62185 70 58 80
-0.010958 0.420267 2.73242 86 70 34
-1.14192 0.133054 2.56286 46 46 58
-0.816918 0.306324 2.9867 35 27 19
-0.490825 0.449147 3.2993 13 11 6
-0.937012 0.384064 2.99995 8 8 6
-0.697317 0.452596 3.12044 7 6 4
-1.32894 0.341678 2.82917 32 31 30
-1.18728 0.453403 2.79357 20 20 18
0.177782 0.452748 3.26033 12 10 8
-0.335149 0.778113 3.16902 87 63 32
-1.02459 -0.150832 2.58165 20 18 21
-0.864984 0.204971 2.5251 16 16 14
-1.53822 0.175443 2.99939 109 107 107
-1.55467 0.660201 2.56995 140 115 54
-0.500047 -0.961164 2.64951 172 174 176
-0.861065 -0.684722 2.83705 118 122 136
-0.840528 -0.651627 2.80069 110 110 125
-0.938706 -0.34048 2.41318 124 132 143
-0.222607 0.0189204 2.46333 10 9 12
-1.32308 -0.548892 2.60879 68 68 68
-0.943434 0.0619993 2.40019 8 8 8
-0.89054 0.115435 2.44018 6 6 6
-0.964847 0.201388 2.45645 8 8 8
-0.77149 0.316394 2.83194 53 46 31
-1.67176 0.17261 3.28901 117 91 49
3.18731 -3.2865 4.27604 148 148 146
-0.903082 -0.77274 2.89785 175 184 196
-1.45511 0.538856 3.10564 128 105 62
-1.33796 -0.443032 2.58772 24 24 24
-1.14469 -0.0846058 2.64983 13 5 5
-1.99419 -0.0458934 3.9977 124 96 58
-0.810254 0.906856 3.4031 118 90 44
-0.734148 -0.710686 2.6395 206 214 224
-0.0502065 0.260127 2.59276 60 47 28
0.278521 0.372451 3.00138 66 60 53
-1.20333 0.187395 2.78965 25 26 30
-0.0452555 0.98077 3.46091 110 84 47
-1.06572 0.369773 2.60764 21 21 21
-1.18261 0.0264699 2.62168 16 12 10
-0.843512 -0.346278 2.51687 24 26 28
-0.898925 -0.856562 2.94004 134 147 162
-0.965346 -0.617137 2.74554 88 93 111
-1.18355 0.270948 2.68416 114 114 122
-2.43213 -0.193814 3.06406 126 103 62
-3.35906 -0.270597 2.65435 122 93 54
-1.65092 -0.431447 4.39548 120 90 54
3.36788 -3.45757 4.41254 147 148 144
-0.855903 -0.856718 2.76918 134 144 162
-1.20835 -0.206681 2.87153 30 20 71
-1.55933 0.239563 2.97186 108 86 50
-1.17547 -0.324764 2.47919 21 22 26
-1.56031 -0.635968 4.19505 116 92 66
-1.60652 -0.542121 4.2592 107 83 52
-1.53827 0.0970296 3.63707 112 89 62
-1.06032 0.388835 2.61006 15 12 8
-0.404095 1.22018 3.34566 98 72 33
-0.828894 -0.309105 2.53061 24 24 27
0.639112 1.777 2.51734 110 82 40
-0.852807 0.662837 2.57955 100 68 30
-0.581387 1.18895 2.51485 120 93 49
-1.62322 0.894803 2.21492 128 98 43
-2.25494 0.498781 2.53973 142 114 54
-0.304892 1.79075 1.9715 105 76 20
-1.10521 1.21438 2.19888 112 77 18
-1.05776 1.29905 2.12112 120 90 30
-1.28609 1.12991 2.2005 110 76 20
-0.747887 1.57997 1.96112 114 81 25
-1.13917 1.34178 2.06185 118 86 26
-1.40496 1.13944 2.13103 122 90 31
-0.653184 1.42317 2.17944 119 88 28
-1.05035 -0.622514 2.69954 148 144 123
-1.18924 0.0920272 2.51848 44 53 63
-0.972267 0.304779 2.53224 20 14 6
-1.87127 -0.127572 3.30136 146 118 68
-2.35974 -0.276996 3.18816 138 112 65
-0.204115 1.69342 2.12748 114 84 37
-0.424345 1.61184 2.09448 117 88 38
-0.523271 1.56681 2.10898 104 76 27
-0.873897 1.29025 2.23869 116 88 36
-0.535829 1.62419 2.01982 107 83 33
-1.05409 1.19946 2.22912 120 92 39
-1.04227 1.24491 2.19412 112 84 33
-0.314037 -0.961693 2.81411 75 82 90
-0.754036 -0.522555 2.67398 146 152 176
-0.943519 -0.456402 2.70421 34 35 37
-0.633591 1.15849 2.51986 117 90 43
-0.454017 -1.12622 3.05527 104 106 108
-0.346501 -0.96246 3.02944 120 129 133
-0.0545583 -0.259681 2.66543 64 69 68
-0.880329 -0.584686 2.72401 92 106 116
-0.31497 -0.279443 2.5541 16 16 16
-0.983817 -0.595712 2.7432 81 89 96
-0.131039 -0.957142 2.90396 94 100 99
-0.529808 -1.06035 2.95916 64 62 63
-0.839869 -1.04303 3.13612 182 204 210
-0.827283 -0.656869 2.94697 34 42 50
-0.923277 -0.479881 2.70497 40 42 46
-0.863842 -0.445886 2.71035 30 33 38
-0.901554 -0.453428 2.6958 31 34 36
-1.00323 -0.394214 2.68425 58 62 66
-3.1208 -0.721514 3.25732 139 108 57
-1.42887 0.671562 2.61866 128 96 39
-1.42923 0.812574 2.47724 126 104 48
-1.44659 0.851615 2.43329 130 108 50
-0.862691 1.12558 2.43093 121 101 52
-0.397379 1.43198 2.3546 115 89 38
-0.552998 1.38784 2.35006 122 98 48
-1.43005 1.00826 2.25558 124 94 38
-1.37678 1.04265 2.23645 128 100 48
