ply
format ascii 1.0
element vertex 1320
property float x
property float y
property float z
property uchar red
property uchar green
property uchar blue
end_header
-0.989597 0.215236 3.16766 19 20 32
-0.992004 0.724832 3.14666 52 52 43
-0.953416 0.71355 3.16431 4 4 0
-0.938693 0.00599442 3.13137 206 210 216
-0.865627 0.0541674 3.1166 104 107 100
-0.776131 -0.101039 3.2506 129 128 64
-0.64112 -0.239332 3.41749 115 116 58
-0.646559 -0.173823 3.38347 56 54 28
-0.72174 0.39938 3.1689 7 7 5
-0.615103 -0.242598 3.42722 47 44 22
-0.539894 0.595006 3.08186 6 8 23
-0.314231 0.2017 3.24485 52 62 84
-0.348276 0.891541 3.04541 118 118 123
-0.215238 0.809816 2.91103 6 6 9
-0.236719 0.852093 2.89105 147 146 146
0.315985 1.8378 3.73602 58 53 54
0.131022 0.312624 2.98755 88 94 114
0.279769 0.694069 3.03362 97 93 71
0.306974 0.132885 2.9276 55 56 56
0.306974 0.132885 2.9276 55 56 56
0.533445 -0.0639661 3.06368 10 8 8
0.586963 -0.00421915 2.97915 161 151 140
-2.36337 -0.153352 4.98585 84 86 96
-2.18345 -0.589762 4.8809 24 26 32
-1.78834 1.80663 3.70401 2 4 8
-1.64393 0.17506 3.82579 190 198 212
-1.6195 -0.0187565 3.62042 42 44 64
-1.42372 0.0418397 3.48486 48 50 64
-1.30379 0.140284 3.41145 43 46 60
-0.990211 0.727323 3.14383 54 56 41
-0.939205 0.730147 3.16893 4 4 1
-0.895254 0.390102 3.25301 130 134 146
-0.679259 0.153009 3.28889 85 90 88
-0.2165 0.440472 2.87742 122 130 147
-0.0612621 1.03349 3.10605 123 121 110
0.403681 0.0683663 4.00398 11 14 20
0.234607 0.903399 3.07779 7 4 2
0.359285 0.674308 3.0911 62 56 46
0.600603 0.0165149 3.15297 69 70 70
-1.44219 0.789008 2.8731 114 117 106
-0.10998 0.265687 3.11163 105 120 142
-1.2273 0.458431 3.36561 4 10 18
-1.20254 0.131899 3.32619 29 31 46
-1.13113 0.0647579 3.04067 140 147 164
-1.08908 0.58143 3.22208 4 6 2
0.0981262 0.0286486 3.3104 106 115 134
0.576333 0.0458377 3.1133 8 8 8
0.615529 0.0222255 3.11953 8 8 12
-1.17345 0.42702 3.33907 32 40 48
-0.726442 -0.0698987 3.2924 43 38 19
-0.354052 0.422103 3.04443 14 18 26
0.508729 -0.1732 3.0718 172 174 176
-1.83023 0.473634 3.60533 41 44 52
-1.70354 0.686938 3.81161 14 14 21
-1.24586 0.439928 3.32506 150 162 172
-0.928719 0.315082 3.18731 30 28 25
0.653781 0.293459 3.0835 36 29 26
-1.41524 1.55772 4.25054 133 144 162
-1.41524 1.55772 4.25054 133 144 162
-0.826606 0.476575 3.19511 42 56 54
-0.633124 1.03076 3.47826 40 38 34
-0.331679 0.402978 3.01638 66 70 73
-0.373435 -0.743714 3.86819 103 106 110
-2.47364 0.0389213 5.34581 168 158 144
-2.39973 -0.406089 4.91656 119 126 139
-2.33381 -0.137255 5.04061 94 104 120
-2.11067 -0.418554 4.7657 94 106 123
-1.8117 -0.245113 4.29616 190 200 205
-1.6639 0.106686 3.79827 55 56 57
-1.60749 1.54577 3.25551 22 32 46
-1.55671 0.589108 3.03274 14 14 20
-1.30076 1.67421 3.081 168 175 179
-0.84041 0.390162 3.22333 24 27 30
-0.84426 0.352379 3.16775 30 30 26
-0.616181 -0.390167 3.70229 85 84 52
-0.711248 -0.00969527 3.28562 113 109 52
-0.634933 -0.257638 3.44179 106 106 51
0.188674 0.381515 2.94603 42 37 36
0.820693 0.631326 3.44762 28 22 16
0.819884 0.58433 3.37928 148 142 135
-2.50138 -0.00778665 5.10084 12 10 10
-2.4732 -0.184721 5.05712 57 50 36
-2.41153 -0.11703 5.03328 208 212 217
-2.14785 1.40252 3.73602 5 4 8
-2.0168 1.73496 3.78653 7 6 10
-2.0168 1.73496 3.78653 7 6 10
-2.07504 0.949587 3.36734 10 8 10
-2.00168 1.79905 3.78029 72 74 84
-1.72672 0.0543355 4.01746 196 209 226
-1.48624 0.0952364 3.58617 208 216 226
-1.52821 1.07872 2.9201 12 10 8
-1.51127 1.09113 2.90222 172 182 189
-1.51185 1.09045 2.90043 172 182 189
-1.35824 1.84523 3.23877 180 192 201
-1.26146 1.66573 3.04201 21 23 26
-1.25879 1.635 3.02086 21 19 24
-0.820033 0.425798 3.25262 14 16 18
-0.71973 -0.00231687 3.26305 111 108 56
-0.722836 0.0780111 3.2326 52 54 48
-0.650484 0.0678516 3.28987 62 64 62
-0.5127 0.0811921 3.42194 92 94 92
0.27609 0.760141 3.11481 46 42 40
0.520954 0.699132 3.07991 24 23 20
0.643746 0.357798 3.10265 104 99 94
1.99692 0.160182 5.45998 34 27 22
-1.76681 -0.625013 4.47795 26 7 11
-1.71782 -0.244751 4.29898 192 198 196
-1.64552 -0.22928 4.29276 183 198 216
-1.42586 0.086526 3.50588 206 222 243
0.452074 -0.160981 3.01975 44 46 46
-2.31459 0.077125 5.10354 32 35 46
-0.344252 0.880634 3.02684 7 7 9
0.481446 2.10713 13.3677 76 80 82
-0.480791 0.552946 3.03207 28 34 46
-0.00148432 0.33551 3.04714 8 10 14
0.782584 0.502542 3.26651 124 106 78
-0.675877 0.0356611 3.2827 44 44 18
-1.97712 2.02801 3.89954 136 112 72
-2.02371 1.67985 3.78968 161 166 179
-1.98766 1.70091 3.7691 6 4 6
-1.79843 1.87125 3.69846 26 30 38
-1.87748 0.880208 3.13893 140 150 158
-1.812 0.893155 3.08503 150 167 170
-1.8176 0.892433 3.07556 150 167 170
-1.4811 0.0909991 3.55341 45 50 70
-1.47694 0.0890354 3.55865 45 50 70
-1.4054 0.225269 3.40383 164 178 198
-1.34054 0.0893541 3.43032 184 190 210
-1.25541 0.149312 3.38713 14 14 23
-1.36789 1.85311 3.26126 10 12 21
-1.22733 0.130283 3.34618 6 9 20
-1.35948 1.84554 3.24294 186 196 204
-1.18434 0.145497 3.31131 192 197 210
-1.3184 1.45701 2.95593 12 10 16
-1.32034 1.4574 2.95374 12 10 16
-1.29983 1.51125 2.96634 184 194 197
-1.07441 0.24805 3.27509 142 154 172
-1.03709 0.0320101 3.14365 72 78 75
-1.01742 0.184287 3.19756 14 14 20
-1.01926 0.184738 3.19464 14 14 20
-1.0364 0.316501 3.1681 128 138 154
-0.793939 0.350835 3.16399 26 22 24
-0.538573 0.570517 3.06458 7 6 16
-0.349797 0.879825 3.01578 10 10 12
-0.13959 1.01519 3.14784 76 76 74
0.0664369 -0.204402 3.23386 6 6 10
0.0291031 0.296589 3.01191 65 75 96
0.424555 -0.197583 3.08645 100 102 105
0.290368 0.801279 2.98009 10 4 32
-2.18889 -0.14016 4.89916 185 196 215
-2.16778 -0.486697 5.01083 42 50 60
-2.3202 1.42785 4.01908 158 153 158
-2.32769 1.34872 3.95548 159 160 170
-1.93837 -0.393617 4.49286 84 95 104
-1.88844 -0.525906 4.51626 34 37 44
-1.83474 -0.251767 4.41293 201 208 206
-1.8118 -0.27289 4.36724 27 32 38
-1.72437 0.243084 4.68561 8 11 20
-1.75504 -0.236006 4.36451 194 201 202
-1.73899 -0.222115 4.34279 18 25 29
-1.56338 -0.374836 4.34179 228 238 238
-1.55203 -0.581008 4.30825 114 118 121
-1.55205 -0.580501 4.30767 114 118 121
-1.49399 -0.384803 4.34168 102 98 96
-1.87969 0.880094 3.13136 141 156 160
-1.62295 -0.196485 3.67728 200 208 224
-1.59618 -0.218914 3.65348 77 76 70
-1.7999 0.732151 3.01637 26 27 34
-1.44936 0.0387286 3.50789 174 178 193
-1.51684 1.08804 2.89483 174 191 193
-1.29686 0.442414 3.31893 5 7 16
-1.38137 1.86743 3.27071 180 186 202
-1.49915 1.12191 2.87623 164 179 182
-1.36793 1.85276 3.26164 14 18 28
-1.27655 0.474046 3.25444 10 11 17
-1.46801 0.792067 2.84608 67 67 67
-0.535541 0.184128 4.75326 8 10 18
-1.30666 1.69653 3.10656 22 29 36
-1.30471 1.67541 3.08656 171 180 191
-1.3094 1.58498 3.03391 12 12 21
-0.905381 0.386195 3.23047 85 85 94
-0.892961 0.31566 3.15776 46 44 46
-0.288591 0.0267821 3.4979 69 74 72
-0.288591 0.0267821 3.4979 69 74 72
-0.148242 -0.0053572 3.5542 106 110 110
-0.084317 -0.0266383 3.49177 28 29 32
-0.0680765 -0.13477 3.49587 171 174 174
0.0294511 -0.00513973 3.36591 13 14 16
-0.0901102 1.01971 3.11642 126 122 122
0.554744 1.14994 3.29246 9 8 4
0.439334 0.688673 3.01898 8 5 2
0.496583 0.916201 2.99737 41 36 46
-2.21373 -0.635222 5.10742 131 136 140
-1.97628 0.468078 5.1952 36 40 52
-1.82167 -0.22367 4.24877 194 208 210
-1.1727 0.532015 3.21895 8 8 11
-1.30246 1.52831 2.97559 25 22 28
-0.919483 0.0836819 3.1118 84 83 77
-0.493549 -0.538045 3.67946 132 136 136
-0.139132 -0.0471998 3.59223 50 56 48
-2.51947 -0.025341 5.17472 212 228 238
-2.47692 0.00323217 5.19393 18 15 13
-2.09281 -0.426535 4.81133 52 64 74
-2.03562 0.140648 4.90074 64 68 80
-2.18694 1.63951 4.16981 113 82 48
-1.93131 0.0305157 4.73581 46 54 74
-1.90354 0.177187 4.78635 63 68 81
-2.03188 1.65857 3.78261 152 152 165
-1.74283 -0.216637 4.33217 14 26 30
-1.6939 -0.394389 4.45905 74 81 84
-1.67145 -0.234807 4.32141 15 22 30
-1.72417 0.138269 3.90651 158 170 187
-1.69189 0.125583 3.82517 12 10 16
-1.6891 0.124102 3.83195 12 10 16
-1.68852 0.124393 3.83298 12 10 16
-1.64049 0.178615 3.82866 181 191 207
-1.66163 0.11378 3.7354 188 194 212
-1.29943 0.137812 3.41781 25 26 37
-1.20196 0.116144 3.31398 12 14 23
-1.15568 0.167008 3.30121 22 22 33
-0.972825 0.306305 3.19524 122 130 148
-0.990693 0.106512 3.13196 160 168 186
-0.147123 -0.0414462 3.58346 42 46 46
-0.274858 0.322951 2.99323 6 7 8
-0.230815 0.773075 2.84058 13 13 20
0.12144 0.316012 2.95511 58 64 78
-2.45988 -0.0279435 5.19462 86 72 62
-2.43066 0.0117142 5.15234 210 224 232
-2.3996 -0.41175 4.92374 122 123 132
-1.95258 0.00730104 4.66195 196 208 216
-1.94316 -0.531652 4.53611 38 41 46
-2.20464 1.1236 3.58848 13 13 12
-1.89214 0.0748562 4.64404 46 58 78
-2.12649 1.5117 3.77555 1 2 10
-1.86859 0.0794229 4.58002 171 182 178
-1.8547 -0.549805 4.49204 116 116 118
-2.15866 0.989245 3.48597 10 10 8
-1.83016 -0.283783 4.39044 191 202 204
-1.78636 -0.237413 4.3378 86 97 104
-1.69302 -0.448723 4.56298 16 19 23
-1.98775 1.69991 3.7708 6 6 8
-2.03759 0.895719 3.2915 160 158 164
-1.63353 -0.283254 4.30625 206 215 222
-1.7131 0.17624 3.92522 88 88 94
-1.79397 1.81566 3.69921 12 12 17
-1.67052 0.127785 3.81059 216 223 232
-1.60225 -0.214394 3.64469 98 101 99
-1.82539 0.898825 3.11649 14 6 10
-1.54645 0.0381159 3.58778 165 170 185
-1.54911 0.0393014 3.58187 165 170 185
-1.49397 0.0852452 3.56615 22 32 50
-1.48826 0.081263 3.5845 22 32 50
-1.04252 -0.69191 3.85171 136 140 146
-1.23198 0.143474 3.36755 219 228 245
-1.32756 1.86741 3.21828 14 14 18
-0.914123 0.347387 3.24553 18 17 16
-0.907921 0.0889393 3.12186 76 72 66
-0.826704 0.783632 3.18409 18 18 16
-0.186594 0.939367 3.13599 8 8 8
-0.226233 0.945582 3.06783 8 8 8
-0.109402 0.472138 2.86769 6 6 6
0.268861 0.758921 3.08982 44 43 38
-2.28096 -0.617377 5.10956 100 106 109
-2.25656 -0.644724 4.983 184 186 187
-1.89678 -0.564807 4.49796 58 8 10
-1.75367 -0.636074 4.51538 24 5 6
-1.52732 -0.66292 4.4311 116 119 122
-1.69529 0.361231 3.6737 142 152 164
-1.63902 0.146576 3.72335 97 96 92
-1.60135 0.332908 3.60178 151 164 178
-1.0434 -0.690012 3.85001 134 140 145
-0.0896123 1.0405 3.12394 126 126 124
-2.02128 0.724731 4.8254 14 16 24
-1.85562 -0.550316 4.49378 138 139 146
-1.85562 -0.550316 4.49378 138 139 146
-2.02983 1.6585 3.78674 154 156 166
0.644322 0.0396414 3.09341 172 165 154
-2.26829 -0.517413 6.65231 146 147 148
-1.34511 -0.0722896 3.23262 102 106 110
0.28601 0.00427003 3.89387 40 42 38
0.283457 0.0270246 3.8187 44 46 44
0.41086 0.10607 3.04866 8 9 12
0.419679 0.120385 3.02008 172 176 196
-0.122734 0.237391 3.36676 73 75 77
-0.379221 -0.730624 3.84062 108 112 114
-1.55288 1.45707 6.11786 63 66 80
-1.5282 1.07784 2.92061 10 10 11
-1.43561 1.17181 2.91798 183 191 196
-1.32888 1.75313 3.18024 134 139 150
-1.32888 1.75313 3.18024 134 139 150
-0.0937088 1.04255 3.12322 114 114 111
-2.50384 -0.0989642 5.15845 40 42 44
-2.45361 0.0212885 5.15196 24 34 40
-2.40106 0.0276762 5.13188 70 61 42
-2.18474 1.13204 5.63101 176 184 202
-1.83131 -0.280151 4.38435 180 190 192
-1.69022 -0.177984 4.31532 184 197 212
-1.71485 0.184499 3.92632 24 28 35
-1.70584 0.175703 3.94481 24 28 35
-1.30976 0.0552394 3.37805 182 196 214
-1.26221 0.233347 3.41269 170 186 203
-1.42206 1.21462 2.89941 14 11 9
-0.831861 0.33406 3.16143 104 112 126
-0.483467 0.0975247 3.43372 48 50 44
0.0264946 -0.358477 3.75851 170 173 173
-0.549867 0.585156 2.99922 94 100 118
-1.66803 0.114456 3.81751 176 184 190
-1.78851 0.997387 1.9575 77 80 83
-1.78851 0.997387 1.9575 77 80 83
-0.52599 0.668284 3.09818 71 76 88
-2.25247 0.0867709 5.22534 32 36 46
-2.21398 -0.708696 5.07931 181 182 186
-2.17144 -0.731452 5.09132 64 66 69
-2.115 -0.574611 4.98474 171 179 199
-2.10223 -0.605333 4.93893 34 39 46
-2.0913 -0.592534 4.97304 24 28 38
-2.11886 0.215969 5.08361 10 12 24
-1.99444 0.453537 5.12184 30 33 44
-2.05516 -0.127641 4.65391 175 183 202
-2.04018 -0.144198 4.6873 175 183 202
-1.86126 0.10834 4.60127 11 12 18
-1.8647 0.0779155 4.58426 156 160 162
-1.79829 -0.536614 4.54256 8 6 10
-1.83444 -0.0778992 4.41042 164 174 193
-1.7188 -0.551167 4.53082 78 80 73
-2.21363 1.1682 3.62979 9 7 10
-1.68853 -0.000876102 4.48794 7 14 28
-1.57928 -0.673434 4.43825 11 14 15
-1.57734 -0.449933 4.39058 20 22 26
-1.55607 -0.375715 4.44568 10 18 30
-1.53097 -0.329159 4.30948 18 18 26
-1.46734 -0.394681 4.38391 98 96 90
-2.07826 0.925143 3.3641 128 138 146
-1.48167 -0.558161 4.24634 117 120 122
-2.03659 0.897251 3.2923 172 183 188
-1.26384 -0.67662 4.41088 96 99 106
-1.84257 1.86311 3.72423 152 151 166
-1.80685 1.88527 3.7019 166 169 182
-1.64413 1.9271 3.5841 20 17 27
-1.64291 1.92856 3.58601 20 17 27
-1.64193 1.92918 3.58572 18 16 28
-1.61139 1.93613 3.55713 11 14 25
-1.61513 1.93671 3.55255 11 14 25
-0.836583 -0.746026 3.97396 178 180 184
-1.51369 0.628887 3.00501 82 87 94
-1.57856 1.05126 2.96096 12 9 15
-1.57141 1.03471 2.92522 11 8 12
-1.55047 1.06231 2.91774 142 156 166
-1.52258 1.09064 2.88794 163 180 186
-0.260415 -0.766692 4.41017 121 122 121
-1.50191 1.11208 2.92172 172 186 192
-1.50073 1.10187 2.88885 12 8 14
-1.13981 0.483905 3.25793 40 40 42
-1.44877 1.17497 2.88401 128 139 149
-1.40012 1.2474 2.94097 14 12 18
-1.39431 1.25888 2.88821 158 170 182
-1.03398 0.0317993 3.14684 66 68 62
-1.29987 1.63981 3.06883 152 162 173
-1.37705 0.987387 1.89956 112 106 103
-0.161402 1.0146 3.17068 84 82 80
0.0570801 -0.05877 3.11362 100 102 127
0.0656245 -0.051855 3.129 100 102 127
0.282877 -0.337622 3.11367 172 173 175
-2.5103 -0.0295724 5.18994 230 242 251
-2.41752 -0.175707 5.19447 140 145 156
-2.22217 0.299056 5.2126 56 60 70
-2.19529 -0.1387 4.87911 186 194 216
-2.091 0.564206 5.25571 55 61 72
-2.1018 -0.105523 4.81632 176 184 204
-2.1018 -0.105523 4.81632 176 184 204
-2.02398 -0.143176 4.72335 178 188 204
-1.95836 0.263756 4.9117 10 14 20
-1.96037 0.126081 4.85916 70 72 83
-1.96384 0.124178 4.85661 70 72 83
-1.95881 0.146578 4.81879 14 18 30
-1.91076 -0.0282999 4.60811 28 28 40
-1.84449 -0.250862 4.44353 17 23 30
-1.84768 -0.249269 4.43442 17 23 30
-1.81931 -0.0996569 4.51876 31 34 39
-1.87854 1.83708 4.43389 110 81 54
-1.65215 -0.390973 4.41262 12 16 21
-1.62374 -0.342035 4.32824 22 28 37
-1.55859 -0.378102 4.35409 231 240 240
-1.50135 -0.369888 4.32269 106 106 100
-2.03161 0.918292 3.32066 6 6 9
-1.89617 0.883275 3.17286 154 162 167
-1.50502 0.0663605 3.57163 157 163 186
-1.61126 1.93667 3.55731 18 23 32
-1.57201 1.93117 3.51369 22 24 36
-1.37754 0.349991 3.43366 156 10 3
-1.29827 0.13812 3.41897 14 14 22
-1.13889 0.125008 3.26436 140 142 166
-1.46436 1.16932 2.91873 14 12 21
-1.05055 0.127206 3.17728 123 129 148
-1.31452 1.69831 3.09206 52 58 72
-1.31028 1.55788 3.01402 16 18 30
-0.988135 0.212003 3.17524 9 8 14
-0.916227 0.350631 3.23441 23 21 20
-0.914222 0.000670402 3.12007 60 59 52
-0.76137 0.446048 3.19293 70 71 76
0.0511845 -0.139103 3.52492 66 68 69
0.132065 0.311055 2.96174 58 58 62
0.521373 1.01513 3.11759 200 203 228
13.4464 -2.21748 15.926 158 136 105
-4.36028 2.15646 4.27997 109 74 26
-2.3385 -0.215755 5.01735 198 208 218
-2.22605 0.381463 5.2319 59 64 76
-2.14058 0.654358 5.29444 54 58 70
-2.14585 0.370561 5.11947 56 60 72
-1.94493 -0.523584 4.52083 26 26 38
-1.72014 -0.420737 4.48768 8 10 13
-1.70643 0.274312 4.63312 54 58 68
-1.69866 0.0751457 4.53638 178 184 204
-1.75002 -0.263629 4.33477 204 212 212
-1.73482 -0.272335 4.39151 204 212 212
-1.69757 0.0735835 4.50896 173 184 200
-2.18805 1.0522 3.52994 145 148 158
-1.59056 -0.398941 4.2575 104 111 130
-1.73717 0.0837779 4.04958 22 23 33
-1.73692 0.162604 3.95529 206 214 231
-1.7189 0.139379 3.924 150 158 177
-1.47286 -0.463925 4.12427 114 122 144
-1.65886 0.126419 3.82744 115 116 126
-1.84379 1.86222 3.72205 160 162 174
-1.59007 0.237999 3.84896 24 31 42
-1.88246 0.881957 3.20231 143 147 154
-1.7779 0.898676 3.05597 127 132 136
-1.2268 0.126327 3.85077 158 174 193
-1.40618 0.0624527 3.47192 176 184 206
-1.58364 1.57991 3.39492 10 9 38
-1.33836 0.0853084 3.43408 168 176 193
-1.34052 0.0802073 3.42973 168 176 193
-1.34052 0.0802073 3.42973 168 176 193
-1.51686 0.670575 2.98363 6 6 8
-1.22326 0.106224 3.3566 185 190 210
-1.55891 1.02861 2.98862 166 176 188
-1.18565 0.14554 3.31108 184 190 207
-1.31697 1.75099 3.15632 20 18 28
-1.31348 1.6399 3.13069 12 11 16
-1.28394 1.47995 2.98759 186 187 194
-0.578762 1.0607 3.97739 6 6 6
-0.395134 0.111712 3.35873 123 128 126
-0.39925 0.387033 3.03725 30 32 36
-0.0907138 0.436639 2.93509 12 13 14
0.28332 0.782158 3.0673 8 7 4
-2.2697 -0.641716 5.18107 88 92 95
-1.97039 -0.459492 4.46974 188 192 196
-1.89437 -0.583607 4.46909 102 0 0
-1.80829 -0.273879 4.37876 63 72 80
-1.44197 -0.545547 4.20348 123 124 124
-1.64623 -0.139668 3.60948 116 125 132
-1.56804 0.373462 3.54894 38 47 55
-1.04332 -0.650531 3.88658 30 32 31
-0.874235 0.368103 3.19795 16 12 10
-0.758373 0.445367 3.19799 84 86 97
0.476975 -0.140136 2.97138 153 148 143
-1.78905 1.85048 3.69697 12 10 18
-0.00101628 0.114802 3.0359 106 110 110
0.344788 0.135507 2.95954 8 8 10
-0.276621 0.637519 2.77847 126 132 144
-2.49869 0.0645735 5.24216 164 154 139
-2.49363 -0.00664373 5.17039 12 18 20
-2.15202 1.27103 5.76587 174 173 187
-2.15202 1.27103 5.76587 174 173 187
-1.65549 -0.40761 4.35063 115 123 127
-1.74082 0.133421 3.99051 14 20 31
-1.71907 0.0484117 4.01033 18 26 48
-1.78779 1.56329 3.94292 7 8 8
-2.00617 0.889519 3.26557 10 8 10
-1.96698 0.87763 3.20215 54 62 68
-1.93528 0.872543 3.17323 10 10 8
-1.67788 1.90578 3.58092 10 11 25
-1.62942 0.992342 2.94784 13 10 14
-1.45952 1.1598 2.89107 69 80 92
-1.09452 0.179711 3.25555 9 12 21
-0.942967 -0.0584443 3.14519 70 68 58
-0.956056 0.297955 3.16504 126 138 156
-0.0677773 1.06346 3.10332 13 12 10
0.371374 0.899717 3.00281 6 6 5
-2.27535 0.956525 5.78552 14 12 14
-2.39985 -0.0244703 5.13049 189 204 214
-2.39985 -0.0244703 5.13049 189 204 214
-2.18403 1.11972 5.68208 162 170 191
-2.22978 0.301047 5.20109 52 56 68
-2.18119 1.07523 5.50979 24 25 36
-1.91337 0.692364 5.12604 46 50 58
-1.86561 0.128328 4.68049 18 19 28
-1.67873 -0.290729 4.3001 190 202 218
-1.78937 1.88216 3.67296 11 8 12
-1.64471 1.92962 3.581 18 15 28
-1.57841 1.93131 3.53687 182 191 206
-1.3784 0.0610935 3.4469 14 14 22
-1.52859 1.9278 3.46036 70 78 96
-1.29606 1.61805 3.02703 174 185 192
-0.854799 0.3959 3.20706 24 22 22
-2.26031 1.31532 5.86207 105 69 30
-2.06768 -0.416773 4.65473 200 211 223
-1.69363 0.0728275 4.54894 182 188 208
-1.66891 0.0683215 4.47809 169 178 194
-2.04006 0.899437 3.2883 162 169 173
-1.59574 1.93704 3.52381 164 176 190
-0.728521 -0.852728 4.15106 129 133 138
-1.49522 0.537109 3.09308 8 10 14
-0.542196 0.198157 3.30567 30 28 24
-1.84405 0.416108 3.84355 12 14 24
-0.953707 0.17828 3.12629 144 156 176
-0.0440374 0.274679 3.31217 74 84 100
-2.31357 1.56374 3.80202 23 10 2
-4.35746 2.16128 4.29656 115 82 36
-1.45172 0.199518 3.62598 96 114 138
-2.51992 0.00238572 5.23812 90 76 61
-2.25682 0.956071 5.87197 16 14 16
-2.35672 -0.435466 4.9224 218 226 235
-2.28406 -0.0428188 5.05895 12 12 16
-2.10397 0.646204 5.37853 54 59 68
-2.1799 -0.165437 4.83679 178 184 204
-2.0449 0.641092 5.35166 12 17 26
-2.0449 0.641092 5.35166 12 17 26
-2.0451 0.586967 5.31513 15 21 32
-2.08146 0.121289 5.00976 8 13 24
-2.02616 0.445506 5.18509 10 14 26
-2.02225 -0.113641 4.73206 170 176 194
-1.81159 0.0629989 4.56812 4 4 10
-2.30754 0.988883 3.8015 94 100 114
-1.73615 -0.269487 4.35715 208 214 212
-1.59505 -0.436407 4.36275 22 22 28
-1.60894 -0.487184 4.32069 33 34 40
-1.6378 -0.241171 4.30866 148 152 169
-1.58688 -0.408158 4.29214 116 124 145
-2.19915 1.12204 3.59842 12 9 10
-1.72136 0.0789239 4.04911 12 14 20
-1.72853 0.129112 4.01357 8 18 21
-1.73184 0.159528 3.96601 148 157 173
-1.4891 -0.498772 4.15878 10 10 15
-2.20174 0.829399 3.2341 59 62 72
-2.09265 0.947626 3.35326 16 14 18
-1.34329 -0.453333 4.08919 28 30 36
-2.07022 0.932602 3.32218 22 23 27
-1.65619 -0.0301384 3.65856 134 143 160
-1.64804 0.00900723 3.6642 14 12 23
-1.64187 -0.0385722 3.63725 138 146 164
-1.61187 -0.00657013 3.64656 154 156 178
-1.55103 0.0536039 3.60262 156 158 181
-1.80501 1.8549 3.70859 170 174 182
-1.64498 0.380906 3.51159 30 34 46
-1.52694 0.0674502 3.59104 14 14 20
-1.44322 0.0926272 3.53337 12 12 20
-1.40325 0.0533633 3.47463 195 194 220
-1.63439 1.93147 3.59405 20 19 29
-1.35548 0.0946495 3.41521 148 151 166
-1.27552 0.0950522 3.34145 13 12 20
-1.49277 1.92221 3.44202 28 30 46
-0.391481 -0.76247 3.92461 130 135 139
-1.12061 0.139824 3.24833 96 100 114
-1.06135 0.182336 3.13686 4 4 10
-0.997642 0.180438 3.15666 96 98 116
-0.993243 0.16271 3.15032 5 6 16
-0.906021 0.368537 3.22457 80 73 71
-1.32494 1.55991 3.04756 18 16 21
-0.845207 0.396274 3.22036 26 22 20
-0.526894 0.357259 3.208 8 8 10
-0.818327 1.08716 3.07155 68 58 44
-0.818327 1.08716 3.07155 68 58 44
0.0174401 -0.0794055 3.43748 135 138 141
0.458201 -0.110829 2.967 160 150 134
0.378304 0.732158 3.05495 143 142 126
0.432085 0.773664 3.02718 44 41 28
0.445981 0.759155 2.9556 122 99 58
-2.32298 1.0383 5.76019 121 116 118
-1.8697 1.17388 5.52306 148 151 167
-2.43505 0.463722 5.54296 151 126 88
-2.16819 -0.170059 4.87023 185 192 210
-2.05165 0.929349 3.34917 14 13 16
-1.40008 -0.0969391 3.47275 94 104 116
-1.83205 0.871516 3.0849 12 13 18
-1.70699 0.676169 2.96235 23 22 24
-1.68944 0.653509 2.97403 95 99 97
-1.23576 0.0918383 3.3278 14 20 28
-0.932606 0.317232 3.18717 21 17 14
-1.37325 1.30061 2.9044 25 26 29
-0.420308 0.538259 2.86732 10 11 14
-0.307764 0.595577 2.81427 16 16 22
0.433742 1.1704 3.13223 102 84 59
-0.00905296 0.0702281 3.1886 76 77 77
0.605971 0.0321785 3.06979 142 142 140
0.326733 1.01786 3.69262 17 16 14
-1.53553 1.94661 3.47673 164 172 183
-1.46325 1.89493 3.39607 32 38 49
-1.3585 1.84507 3.24348 179 192 201
-1.40473 1.23209 2.89317 162 168 170
-1.28891 1.61781 3.03424 162 169 179
-1.65246 0.150403 3.81118 56 59 68
-1.63139 -0.147905 3.64192 100 108 118
-2.28933 1.32204 5.86256 97 64 32
-2.24985 1.05379 5.65858 11 12 20
-2.2049 1.38072 5.7776 136 118 104
-2.16976 0.781587 5.45337 50 54 64
-2.16976 0.781587 5.45337 50 54 64
-2.27216 -0.1661 4.91163 172 182 202
-2.27216 -0.1661 4.91163 172 182 202
-2.22342 -0.166379 4.91815 176 186 206
-2.00281 0.599163 5.13443 12 16 27
-3.87685 1.65843 0.952263 138 134 132
-1.41367 0.0722577 3.51161 181 186 214
-1.40305 0.0948206 3.47905 147 154 171
-1.60217 1.98859 3.5672 6 8 12
-1.59122 1.93772 3.5498 172 181 194
-1.5888 1.9202 3.54474 10 10 19
-1.5567 1.95104 3.50784 172 176 188
-1.5567 1.95104 3.50784 172 176 188
-1.18408 0.141062 3.30019 167 168 186
-1.3001 1.65664 3.06584 24 26 36
0.0620938 0.299444 2.98073 51 54 66
0.508174 1.15872 3.20661 126 112 90
0.481184 0.84611 3.01686 66 48 26
-2.37677 0.131755 5.55436 36 32 33
-2.04389 -0.22297 4.69847 176 184 198
-1.80746 0.467129 3.96241 20 24 32
-0.6265 -0.829254 4.18806 176 178 183
-1.69427 0.65267 2.97398 84 86 86
-1.22783 0.129815 3.34758 12 16 24
-0.973604 0.103189 3.09262 126 132 144
0.038809 -0.111289 3.15468 16 16 20
0.398514 0.328174 2.85606 48 38 24
-0.0370017 0.0751672 3.15949 80 84 83
-1.9734 -0.781131 5.10359 136 126 112
-2.15868 0.0531691 5.05783 17 20 29
-2.49953 1.43126 3.61335 136 120 96
-1.26116 0.148234 3.37698 8 7 11
-1.2303 0.113573 3.31991 85 90 92
-1.4408 0.692357 2.92835 45 46 46
-1.22474 0.112684 3.33151 110 123 134
-1.5079 1.94372 3.45014 155 170 182
-2.17546 1.40166 3.75286 181 186 199
-1.47562 0.0268486 3.52449 30 31 42
-1.80224 0.669084 2.99534 11 12 15
-1.0769 0.211725 3.75206 122 132 152
-2.1232 -0.678018 4.88232 72 76 80
-1.54956 -0.412155 4.35345 102 112 132
-1.63304 0.674029 2.96746 42 46 34
-1.74154 1.97838 3.12616 95 100 122
-1.48363 1.93829 3.43346 184 188 209
0.0429663 -0.258236 3.2876 70 65 58
-1.88065 -0.384573 4.46159 38 44 47
-1.77887 -0.129836 4.37467 170 179 194
-1.44356 0.0953722 3.53462 44 44 58
-1.40504 0.0587828 3.47298 203 205 224
-1.56075 0.699431 3.04844 143 145 136
-0.00871455 -0.0226356 3.39533 24 24 28
-2.13546 -0.495254 4.60467 18 22 34
-1.71959 0.0775111 4.01331 10 16 33
-1.60576 0.483212 3.69804 58 63 76
-1.28684 1.60382 3.02615 38 37 45
-0.220936 0.215834 2.53542 62 65 79
0.324499 0.283628 2.73616 34 28 20
0.324499 0.283628 2.73616 34 28 20
-1.6476 1.9279 3.57669 22 25 34
-2.52326 0.001336 5.17864 222 230 245
-2.91882 0.660046 4.4225 170 155 136
-2.30423 0.223136 5.22936 60 66 78
-2.33326 -0.110016 5.03336 188 195 214
-2.1705 0.0334728 4.99798 62 64 72
-2.14601 -0.165431 4.81018 175 186 204
-1.89256 0.151669 4.77483 12 16 27
-1.7904 -0.237769 4.39722 176 186 186
-1.72979 -0.0280858 4.5299 22 36 52
-1.71737 -0.210286 4.3244 199 206 208
-2.04276 0.899776 3.28369 185 190 200
-1.48189 0.00527406 3.51817 152 160 178
-1.23803 0.10754 3.34627 189 190 218
-1.62701 0.992927 2.94927 14 6 10
-1.52481 1.09271 2.88282 182 190 198
-1.02472 0.13157 3.15841 110 115 136
-0.542913 0.327923 3.16409 10 10 14
0.171111 0.357973 2.93801 124 123 116
-2.212 -0.585997 5.15807 140 144 149
-2.26621 0.1331 5.15017 50 54 65
-2.15116 -0.642111 5.09511 30 27 30
-2.14556 -0.745003 4.977 79 85 85
-2.24348 1.66474 3.8586 123 92 54
-1.55071 -0.375105 4.37225 228 236 239
-1.79101 0.130812 4.11605 155 160 172
-1.79101 0.130812 4.11605 155 160 172
-1.40295 0.199191 3.82122 134 150 174
-1.43425 1.2066 2.9153 166 170 182
0.108007 0.18213 2.90738 43 42 48
0.226777 0.895187 3.09649 174 178 202
-1.6844 0.459702 2.95282 7 10 18
-4.00365 1.9451 4.5925 126 88 40
-3.86501 2.03924 4.38673 125 90 44
-3.67495 2.14802 4.15501 118 78 27
-3.61314 2.0743 4.27498 122 88 39
-3.49454 1.94284 4.51603 126 86 36
-3.49454 1.94284 4.51603 126 86 36
-2.39141 -0.132773 5.29733 134 140 150
-2.34477 -0.0662164 5.07846 42 38 37
-2.13826 1.10003 5.84336 185 186 204
-2.23291 0.223943 5.25357 14 20 30
-2.18678 0.0529078 5.0862 19 22 32
-2.09707 -0.576896 5.03312 162 176 204
-2.20202 -0.185176 4.92136 157 161 174
-2.17259 0.0328392 5.06213 59 62 71
-2.15587 0.13558 5.11357 18 24 34
-2.07869 -0.545641 4.98171 28 30 41
-2.12741 0.0541702 5.03599 22 24 33
-2.07026 -0.571018 4.85376 12 14 20
-2.01329 -0.497519 4.94256 146 160 171
-2.04773 0.111695 4.99838 18 22 32
-2.00269 0.263282 5.03252 25 29 42
-1.96738 0.202808 4.94079 25 28 42
-1.83674 0.838629 5.29821 16 21 34
-1.75319 0.23083 4.77164 18 23 34
-1.75319 0.23083 4.77164 18 23 34
-1.79525 -0.279198 4.40255 12 17 20
-1.79525 -0.279198 4.40255 12 17 20
-1.60615 0.845281 5.08421 58 63 72
-1.60615 0.845281 5.08421 58 63 72
-1.79023 -0.237821 4.39785 197 200 204
-1.74932 -0.269609 4.33932 218 222 222
-1.69766 0.0632179 4.5113 132 135 150
-1.6277 -0.399609 4.46428 12 18 25
-2.23689 1.67738 3.83043 109 82 48
-2.18564 1.08332 3.52706 22 25 24
-3.4605 0.469366 1.16988 19 16 15
-1.15638 -0.613353 4.20802 60 64 72
-1.24139 0.108289 3.34302 150 148 166
-1.62714 1.00296 2.91085 167 175 178
-1.53577 1.08884 2.87246 162 172 173
-1.04037 0.148779 3.16461 12 8 8
-1.4732 1.18427 2.90091 14 9 10
-1.43196 1.21736 2.89367 9 8 12
0.0119661 -0.180977 3.79541 138 144 142
0.150266 -0.0628291 3.48063 10 11 12
0.486766 -0.234534 3.22326 59 62 60
-5.40759 2.19022 4.46282 119 88 36
-5.33987 2.1345 4.54697 125 94 42
-5.16919 2.11593 4.54267 123 92 40
-4.97904 2.10494 4.52751 128 96 46
-4.88025 2.11176 4.50042 120 89 40
-4.88025 2.11176 4.50042 120 89 40
-4.591 2.14378 4.37327 128 98 48
-4.55276 2.12617 4.39745 124 94 46
-4.50265 2.1265 4.3946 128 98 46
-4.39521 2.18119 4.25829 118 85 36
-4.23335 2.1517 4.27548 124 94 42
-1.91073 -0.0343386 4.60726 28 32 41
-1.75677 -0.286524 4.26155 54 71 79
-1.787 0.45521 4.14593 26 28 37
-1.42801 0.0217349 3.46264 141 150 170
-1.63188 0.629591 3.00146 4 5 7
-1.00342 -0.0342013 3.14702 98 99 94
-0.278508 0.0195824 3.50436 41 50 46
0.0831099 0.335324 2.98653 100 103 107
0.532276 0.127006 2.96732 116 118 112
-5.17181 2.10208 4.48191 127 88 36
-3.68231 2.14907 4.15829 118 84 28
-2.24669 -0.56524 5.04365 138 142 146
-1.94824 -0.587764 4.50118 214 50 58
-2.20716 1.71196 3.94954 126 85 38
-1.3766 0.230363 3.57814 92 102 122
-1.06105 -0.624478 3.93599 178 190 204
-1.64576 -0.0859715 2.89714 96 98 100
-1.2009 0.52081 3.22807 79 81 74
-1.20035 0.523547 3.22969 79 81 74
-0.948812 0.0482049 3.1177 124 124 118
-0.922752 0.018407 3.13009 184 186 190
-0.922752 0.018407 3.13009 184 186 190
0.374426 0.221735 4.02017 90 100 114
-0.024875 -0.0609631 3.39735 140 147 149
0.059015 -0.0453554 3.116 88 94 113
0.135137 0.150627 3.08819 5 6 8
0.118279 0.182062 2.92177 52 51 64
0.118279 0.182062 2.92177 52 51 64
0.173677 0.159489 2.93557 4 4 4
-1.47416 1.8948 3.41308 189 194 202
0.0299672 0.122963 3.19008 12 8 19
-1.64285 1.92626 3.58634 13 20 30
-1.44217 0.394939 3.3621 16 17 27
-0.330823 0.908923 2.91175 12 10 12
-1.15885 -0.871584 5.1382 48 50 47
0.0948255 -0.117583 3.45358 24 26 31
-0.23459 0.631714 2.87915 144 152 167
0.421508 0.131312 3.02775 192 194 202
-1.58347 0.501124 4.11474 8 14 18
-1.44462 0.0668349 3.52089 39 44 60
-1.01323 0.228426 3.18793 23 24 34
-1.57804 0.00583759 3.60094 30 31 46
-2.33845 -0.114301 5.04255 189 201 213
-1.67833 0.118794 4.50863 20 22 30
-1.60372 -0.355007 4.24601 220 230 232
-1.56651 -0.384266 4.2159 23 28 35
-1.80559 1.88616 3.70492 185 190 201
-1.383 0.0345533 3.4397 178 191 207
-1.57307 1.60403 3.39617 80 88 125
-1.57119 1.60305 3.40724 80 88 125
-1.56467 1.54497 3.27573 102 116 151
-1.29401 1.54867 2.98547 203 210 216
-2.413 -0.326888 4.99448 135 134 140
-1.7116 0.00575358 4.03263 170 184 200
-0.926016 0.130144 3.12306 140 139 159
-5.23519 2.1221 4.55385 112 76 22
-4.50765 2.122 4.38284 122 92 38
-4.51192 2.18323 4.66515 122 92 38
-2.51064 -0.070361 5.12324 134 135 130
-2.50593 -0.158266 5.10092 54 53 47
-2.467 -0.191689 5.0851 76 64 50
-2.45269 -0.147534 5.14546 18 20 20
-2.47043 0.0194108 5.10173 18 20 24
-2.4384 -0.165155 5.11055 114 116 122
-2.44807 -0.0255381 5.11393 36 36 35
-2.40548 -0.0668839 5.11226 216 230 246
-2.38527 -0.041913 5.16408 134 146 158
-2.38527 -0.041913 5.16408 134 146 158
-2.39703 -0.418074 4.93578 134 137 144
-2.33703 -0.221931 5.04609 202 210 220
-2.29927 -0.0196002 5.01644 58 62 74
-2.13754 -0.611026 4.80752 22 27 38
-2.14159 -0.513892 4.78807 24 28 41
-2.09749 -0.494974 4.54812 194 198 202
-1.96077 0.266972 4.91016 7 10 16
-1.94832 -0.508573 4.53735 178 182 187
-1.90571 0.0368282 4.71933 151 154 168
-1.90571 0.0368282 4.71933 151 154 168
-2.08775 1.63304 4.47705 114 82 46
-1.86408 -0.102238 4.49704 100 109 117
-1.7937 0.146963 4.56586 22 24 27
-1.81982 -0.270375 4.34916 18 28 30
-1.80302 -0.277444 4.39737 18 28 30
-1.75732 -0.492508 4.42822 34 36 34
-1.74582 -0.0716325 4.58013 40 49 50
-1.50121 -0.717243 4.61216 9 10 10
-1.57665 -0.621809 4.33414 68 70 71
-1.72007 0.394901 4.25143 25 27 40
-1.60767 -0.434491 4.23841 111 118 138
-1.60767 -0.434491 4.23841 111 118 138
-1.51006 -0.546036 4.19149 125 129 129
-1.6629 0.103864 3.84045 157 159 160
-1.60998 -0.103709 3.90762 146 156 171
-1.63622 0.105692 3.84459 62 64 60
-1.46623 -0.484343 4.06358 9 12 16
-1.69627 0.399797 3.6973 22 26 33
-1.31027 -0.577858 4.16514 115 117 116
-1.81683 0.599214 3.26327 139 145 152
-1.24044 -0.59852 4.19054 106 108 110
-1.42384 0.358834 3.49783 162 168 182
-1.49484 1.64465 3.64202 12 13 20
-1.05361 -0.689105 3.91721 212 220 228
-1.40002 0.367449 3.4528 154 158 174
-1.65273 0.689329 3.02706 10 11 13
-1.67325 0.663726 2.95397 24 25 22
-1.08037 -0.632332 3.81125 31 30 26
-1.50004 1.59701 3.48411 102 116 156
-1.46576 0.474684 3.2946 4 8 13
-1.04952 -0.668612 3.81893 161 170 180
-1.36038 0.378066 3.43789 157 154 158
-1.30758 0.345851 3.46938 139 104 114
-1.41965 1.65938 3.5162 72 91 114
-0.810985 -0.815287 4.00623 139 144 149
-1.26982 0.442339 3.36618 3 6 12
-1.26133 0.464813 3.33052 26 31 34
-1.26147 0.441948 3.28741 108 112 119
-1.22078 0.466338 3.34232 8 7 8
-1.4091 1.83595 3.2048 135 151 154
-1.20794 0.498394 3.24874 6 2 5
-0.725873 -0.62182 3.73669 74 74 76
-1.35078 1.22596 3.02641 17 18 16
-1.31107 0.886626 2.93495 74 76 70
-1.31107 0.886626 2.93495 74 76 70
-0.953383 0.570375 3.25201 188 196 215
-0.905424 0.392309 3.26494 73 74 83
-0.4949 -0.684705 3.67145 131 135 139
-0.771471 -0.103769 3.25588 139 135 97
-0.808262 0.294696 3.1586 28 20 12
-0.714356 0.375113 3.16456 5 4 2
-0.429096 -0.0103033 3.47084 66 70 68
-0.387504 0.0416656 3.5127 124 128 123
-0.443894 0.0755291 3.37406 123 126 123
-0.0807713 -0.0837329 3.61422 128 132 128
-0.128792 -0.0770012 3.40279 156 158 153
-0.425327 0.432431 3.0106 64 92 100
-0.088544 -0.111697 3.35187 56 57 56
-0.397263 0.495324 2.99935 14 18 30
0.00401601 0.147516 2.96374 6 6 7
0.0385797 0.337967 2.9431 78 83 89
0.0701753 0.211975 2.95658 6 6 9
0.0373158 0.73756 2.93307 4 3 2
0.0373158 0.73756 2.93307 4 3 2
0.178833 0.222448 2.91016 6 7 6
0.278517 0.689956 3.01781 116 112 91
0.337446 -0.0829193 2.94631 64 63 59
0.249016 0.714578 2.9671 10 8 6
0.406622 -0.123272 2.93591 27 22 18
0.492996 0.047262 3.0512 9 10 10
0.492996 0.047262 3.0512 9 10 10
0.319812 0.726739 2.95727 6 6 1
0.505127 0.019796 3.00574 50 49 48
0.431187 0.115145 2.88922 11 12 12
0.355704 0.884417 2.91963 112 90 63
0.429684 1.04715 3.01807 71 52 24
0.442998 0.927369 2.99571 134 137 164
-1.81448 -0.416172 4.43676 106 112 110
-0.0138106 0.185263 3.2304 14 14 24
0.00466976 0.141054 3.19399 190 202 217
-3.54523 0.0381045 0.943347 112 110 102
-3.46236 -0.0834307 0.787717 160 147 122
-2.09931 -0.576608 5.0336 154 170 196
-2.07918 -0.523003 5.07665 208 220 228
-2.04368 -0.587466 4.71655 152 152 148
-1.53623 -0.566679 4.34386 63 66 71
-1.39919 -0.631347 4.34718 172 178 178
-2.04269 -0.197072 2.81928 86 92 88
-1.83671 0.891116 3.07298 22 18 19
0.0413026 -0.214387 3.87624 98 103 101
-0.413113 0.281462 2.96056 12 12 14
-1.05774 -0.767225 6.90561 28 30 36
-5.48549 2.22858 4.40749 127 95 44
-4.59251 2.1448 4.37885 126 94 44
-4.55651 2.12207 4.38627 126 96 48
-2.35585 -0.701618 4.77958 168 173 176
-2.07143 0.167752 5.00388 25 31 44
-1.82172 -0.289904 4.42086 206 218 208
-2.10609 1.86978 3.82022 136 116 75
-1.6304 0.182384 3.82048 176 189 204
-1.39847 -0.356341 4.21116 46 58 66
-1.4574 0.324788 3.47074 157 174 188
-1.34166 1.42846 2.93934 202 204 218
-1.34166 1.42846 2.93934 202 204 218
-0.998166 0.178233 3.15334 143 143 168
-0.765713 0.281219 3.13436 63 61 53
-0.659966 0.96353 3.26067 76 62 38
-2.51963 -0.0871066 5.13168 216 218 212
-2.13162 1.52963 3.77349 180 182 192
-2.02083 1.70182 3.78545 174 178 188
-1.95533 -0.487252 4.48691 213 216 218
-1.94302 -0.418155 4.48926 210 212 216
-1.85021 -0.403515 4.42202 108 114 108
-1.85448 -0.268206 4.38399 86 94 107
-1.82106 -0.418063 4.41463 108 112 106
-1.75288 -0.476558 4.45261 132 135 128
-1.79764 1.87103 3.6977 38 44 60
-1.79843 1.87141 3.70086 38 44 60
-1.4628 0.365763 3.44523 174 184 196
-1.5599 0.713403 2.93168 82 82 66
-1.38942 0.384715 3.36877 193 186 201
-1.49885 0.783957 2.85146 116 118 107
-1.33969 0.420235 3.34853 10 16 24
-1.28925 0.444771 3.29494 4 8 14
-1.37932 0.888662 2.8129 94 94 80
-1.37711 0.890425 2.80473 94 94 80
-1.15877 0.580333 3.17545 78 26 0
-1.06445 0.182225 3.22584 188 193 208
-1.06567 0.634337 3.17303 12 10 4
-1.0613 0.664486 3.1517 70 12 0
-0.912696 0.017367 3.13001 66 66 61
-0.800956 -0.0283501 3.20338 122 112 42
-0.776873 -0.03694 3.23628 32 24 8
-0.745273 0.00954661 3.23241 138 137 71
-0.722991 -0.068302 3.28051 32 26 16
-0.718454 -0.0908518 3.30987 121 121 64
-0.738821 0.0417845 3.22753 129 128 59
-0.680281 -0.146224 3.33555 30 23 10
-0.672256 0.0358138 3.29203 46 45 23
-0.603566 -0.271578 3.4671 126 126 58
-0.348538 -0.665642 3.87926 175 176 177
-0.344773 -0.66752 3.89216 175 176 177
-0.342042 -0.619445 3.89482 63 64 60
-0.302658 -0.654179 3.90765 180 184 188
-0.360541 0.872588 3.11712 62 64 78
-0.141199 -0.00929183 3.53025 112 116 117
-0.127102 -0.0719266 3.24767 164 166 156
0.144676 0.156105 3.20938 85 86 100
0.395908 0.832935 2.98907 79 60 32
0.488238 0.83403 3.04588 118 117 114
-1.15758 0.580931 3.17709 102 52 8
-1.11767 0.0703812 3.25679 192 204 213
-1.03218 0.188853 3.16075 27 27 36
0.219665 0.595426 3.07549 76 57 32
0.222597 0.591672 3.0736 76 57 32
0.394322 0.860447 3.00328 8 6 3
-1.30019 0.140081 3.43586 8 19 34
-0.260427 -0.543448 3.91063 110 114 114
-1.86485 0.44132 4.66503 9 10 15
-2.02223 1.70309 3.78479 167 172 178
-2.05199 0.931486 3.34487 12 10 10
-1.15566 0.170229 3.2998 19 22 34
-2.17784 0.871831 2.46933 12 13 15
-1.15732 0.119062 3.27969 34 34 46
-0.980462 0.239372 3.21374 160 164 188
-1.4638 0.661974 3.00249 10 12 14
0.00149045 -0.200775 3.81574 87 90 89
0.158067 0.27093 2.94029 18 16 18
-2.34678 -0.206752 4.98389 192 202 215
-2.10354 1.83977 3.77485 136 110 58
-1.9609 0.361252 4.86281 131 130 148
-1.77225 -0.0509912 4.48757 52 62 60
-1.48481 0.0208979 3.51365 19 25 46
-1.47305 0.787576 2.8741 20 20 15
-1.29129 1.62747 3.05162 156 158 169
-0.901785 0.870794 3.11994 108 49 12
-0.653166 -0.5647 3.56954 198 211 221
-0.462446 -0.55883 3.7191 39 40 35
-0.0863778 -0.195929 3.88479 58 63 60
-0.23893 0.152029 3.34175 112 116 116
0.0327555 -0.210612 3.89212 74 82 80
0.49082 -0.239657 3.2486 44 44 42
-0.285488 0.0212944 3.50731 30 36 33
-0.271514 0.294268 3.18995 12 14 18
-1.77806 0.965313 3.56724 13 7 12
-2.03346 1.41231 3.56381 6 6 6
-2.14707 0.669678 1.47035 26 28 32
-1.53371 0.0739722 3.60682 11 20 32
-0.497343 0.824473 4.02992 172 180 189
0.191533 0.275766 2.91593 13 12 12
0.907768 1.18567 4.21572 98 90 81
-2.19386 1.05256 3.53919 79 80 82
-2.15532 1.46445 3.76852 12 15 22
-2.45091 0.0971407 5.1635 168 140 106
-1.9114 1.79703 3.75293 15 21 28
-2.14998 -0.425288 4.74685 86 98 104
-1.56059 0.717569 2.90765 126 122 108
-1.49161 1.91553 3.45036 8 9 18
-1.48939 0.810327 2.80833 20 20 22
-1.44056 0.788401 2.86244 135 136 116
-1.37112 0.867342 2.83217 16 16 7
-1.35345 0.868557 2.83902 118 119 96
-1.3157 0.429841 3.32964 4 10 20
-1.1557 0.166667 3.30134 68 70 90
-1.06108 0.665579 3.15291 99 38 2
-0.989095 0.727867 3.13253 60 62 40
-0.965355 0.74358 3.14735 9 8 6
-0.939419 0.750035 3.16507 120 122 101
-0.922916 0.326651 3.17289 36 32 24
-0.872758 0.645806 3.162 22 25 24
-0.847948 0.668122 3.17028 21 24 22
-0.867204 0.274007 3.12663 58 52 46
-0.764243 1.12053 3.19716 68 18 0
-0.831897 -0.0717109 3.19988 140 146 78
-0.824318 -0.0965273 3.21191 134 137 65
-0.809382 -0.136456 3.24384 127 132 60
-0.802743 0.0366845 3.18543 126 126 56
-0.798046 -0.158009 3.25484 127 131 61
-0.797517 -0.15853 3.25998 127 131 61
-0.781219 -0.188421 3.28828 126 132 56
-0.738704 0.304402 3.12657 18 20 16
-0.752 -0.088082 3.27806 23 16 0
-0.743451 -0.187695 3.30533 126 127 62
-0.731506 -0.163308 3.31252 128 130 55
-0.720955 0.100814 3.22949 58 60 52
-0.72207 0.0651476 3.24906 58 60 42
-0.721103 -0.253138 3.35471 130 134 64
-0.692204 -0.275103 3.39153 125 131 61
-0.657531 -0.173148 3.38177 134 135 82
-0.64807 -0.173074 3.38196 76 72 37
-0.612693 -0.308353 3.46588 134 138 66
-0.599809 -0.0967168 3.41653 122 118 44
-0.593155 -0.206683 3.45405 30 26 14
-0.583237 -0.15544 3.45357 126 124 50
-0.468109 0.17856 3.42849 45 46 40
-0.458735 0.539717 2.94169 24 28 36
-0.225686 0.990131 3.2369 6 3 2
-0.268267 0.868405 2.9705 12 12 18
-0.244247 0.848086 2.92111 11 13 24
-0.229609 0.82763 2.89752 12 16 28
-0.12412 1.0253 3.1446 18 16 12
-0.136969 0.203572 3.0205 48 52 54
-0.0329805 0.0729649 3.19359 156 161 164
0.217695 0.718355 3.08442 8 8 6
0.237471 0.592411 3.14558 81 64 34
0.237471 0.592411 3.14558 81 64 34
0.190698 0.327796 2.93801 72 66 55
0.32102 0.71153 3.08576 9 8 3
0.333809 0.801832 2.9986 36 31 34
0.365242 0.715214 3.04436 10 8 4
0.380311 0.845669 2.99036 13 5 2
0.442125 -0.187598 3.12854 140 146 155
0.451236 0.249721 2.91778 26 27 25
0.52989 0.31319 2.95321 112 110 107
0.615431 0.0116235 3.12242 8 8 6
0.656517 0.27544 3.10745 39 31 16
-1.37585 0.842267 2.83957 104 103 82
-0.990702 0.726682 3.13266 66 67 41
-0.784026 0.939269 3.15994 66 67 62
-0.76902 0.362263 3.15535 125 136 145
-0.643546 -0.253117 3.45471 128 130 60
-0.567949 -0.12733 3.45035 70 66 10
-0.402755 -0.613213 3.84468 72 72 66
-0.266686 0.868475 2.96779 8 12 17
0.196467 0.994693 3.21047 92 80 60
0.328741 0.780382 2.99931 238 228 223
0.498707 0.865908 3.01989 32 28 24
0.546783 0.89346 3.04585 17 15 10
-0.713268 0.882868 3.66609 210 203 199
-1.71505 1.6543 3.81729 92 97 108
-1.33944 0.720682 3.39883 50 51 48
-0.489869 0.520289 2.96802 128 140 162
0.942564 0.886769 3.76605 124 111 94
-2.28383 0.962041 3.21782 166 152 130
-1.49065 1.91576 3.45341 12 12 18
-1.58078 0.00207947 3.60886 30 40 54
-1.66264 0.783072 3.11745 86 94 107
-1.39148 1.85784 3.30154 9 10 20
-1.56707 1.56722 3.33138 91 104 133
-1.34806 0.302083 3.49544 146 154 164
-0.0564388 0.874083 2.69268 112 112 120
-2.25889 0.777672 3.51293 44 28 12
-2.51039 -0.143796 5.07171 198 188 178
-2.48788 -0.00436309 5.09655 20 13 7
-2.48044 -0.110287 5.06423 42 42 32
-2.48593 -0.116191 5.08809 42 42 32
-2.39565 -0.0540178 4.97503 36 35 34
-2.36688 -0.424551 4.83452 208 220 230
-2.30561 0.00965851 5.04052 24 24 28
-1.9751 -0.00864135 4.67862 186 193 209
-1.97181 0.0304817 4.68634 26 28 34
-1.90243 0.0553545 4.54468 31 35 40
-1.87491 0.083718 4.52931 171 177 171
-1.60704 1.90424 3.4412 158 166 178
-1.83475 -0.283194 4.35949 194 206 206
-1.64576 0.684113 2.94313 88 88 75
-1.72746 0.150753 3.89226 186 194 208
-1.61252 0.709157 2.91321 26 27 30
-1.73067 -0.383522 4.42554 93 100 103
-1.58218 0.00182964 3.61299 30 34 56
-1.47464 0.763067 2.88638 145 148 126
-1.29838 1.51195 2.98184 184 190 201
-0.946791 0.0661779 3.10284 74 74 67
-0.917292 -0.00596385 3.12607 68 68 57
-0.833919 0.389245 3.19536 38 33 24
-0.779004 1.0181 3.18681 72 72 64
-0.787395 -0.600799 3.80895 12 12 13
-0.764551 -0.208606 3.3038 124 126 62
-0.764817 -0.208805 3.30083 124 126 62
-0.702961 -0.15403 3.33974 126 128 68
-0.693976 -0.116463 3.32366 26 18 14
-0.567207 -0.183315 3.44649 121 122 56
-0.491574 0.777218 3.0419 66 69 76
-0.219239 -0.076433 3.66528 18 24 22
-0.25846 0.369429 2.97412 160 156 128
-0.25846 0.369429 2.97412 160 156 128
-0.17594 -0.00413882 3.54986 110 116 115
0.317047 0.797241 3.03971 172 166 188
-2.18862 1.0506 3.51695 60 62 67
-2.44215 0.00932632 5.21437 62 46 20
-2.04392 0.935818 3.30782 28 24 20
-1.85638 -0.186439 4.60613 184 196 207
-1.75502 -0.441017 4.50005 74 78 76
-1.48932 0.809887 2.80179 14 14 16
-1.43177 0.831336 2.83245 12 12 13
-1.43177 0.831336 2.83245 12 12 13
-1.56842 -0.506259 4.14525 189 206 217
-1.38837 0.849639 2.80147 45 44 27
-1.38425 0.860708 2.80301 110 109 84
-1.40098 0.351901 3.41757 166 172 183
-1.42146 0.0453748 3.45127 49 52 66
-1.37043 0.36951 3.37967 190 175 189
-1.27727 0.320224 3.46756 224 226 231
-1.2501 0.390909 3.33851 12 16 25
-1.17703 0.432075 3.30382 78 77 84
-1.05155 0.210988 3.20484 30 26 38
-0.956158 0.0833 3.07866 189 194 186
-0.762796 1.12289 3.21366 68 18 2
-0.841262 -0.014095 3.12392 118 117 58
-0.793663 -0.0765883 3.23532 125 126 54
-0.753349 -0.0862968 3.25376 22 14 2
-0.669954 -0.205724 3.38461 118 118 58
-0.305816 0.532961 2.72837 11 10 14
-0.0733716 -0.11994 3.56938 51 53 54
0.0074573 -0.201318 3.27968 15 16 18
0.306758 0.859654 3.08282 9 6 4
0.632521 -0.0423986 3.21146 16 12 6
-1.86912 1.88841 3.15991 118 95 43
-2.21975 1.10111 3.5931 150 148 153
-2.10343 0.907891 3.30889 26 20 15
-1.57745 1.87176 3.52114 10 10 14
-1.44027 0.746454 2.88394 3 3 5
-1.41408 0.660186 2.94829 62 65 72
-1.43156 0.0310082 3.52566 28 30 52
-0.960673 0.768041 3.13209 126 128 108
-1.03817 0.0279422 3.17789 110 118 112
-0.897343 0.872795 3.12513 135 50 2
-0.940291 0.310082 3.19106 29 26 26
-0.922055 -0.0134008 3.12349 82 79 62
-0.865892 0.276002 3.12455 58 56 52
-0.790121 0.401925 3.19583 44 42 34
-0.682135 1.40902 3.35951 12 6 3
-0.765525 -0.0171562 3.23887 26 15 0
-0.755901 -0.0371562 3.25035 136 134 58
-0.712444 -0.00825592 3.2869 136 135 51
-0.711561 -0.219387 3.36297 130 131 59
-0.699464 -0.200566 3.37965 129 129 61
-0.699105 -0.255903 3.38614 63 62 14
-0.680145 -0.225012 3.40473 128 128 61
-0.643712 -0.185652 3.4156 20 19 4
-0.612527 -0.201285 3.43786 126 127 76
-0.56767 -0.183089 3.48082 132 134 56
-0.576444 -0.31581 3.51877 132 135 66
-0.537677 -0.173275 3.51083 130 134 70
-0.529144 -0.199007 3.51581 135 138 76
-0.441189 0.510599 2.88313 185 198 216
-0.523143 -0.240925 3.54873 130 132 70
-0.42663 0.498851 3.16912 32 36 46
-0.35573 0.682065 2.93015 8 10 18
-0.224474 -0.542929 3.86117 118 120 124
-0.0653531 0.167963 3.08365 6 8 14
0.234222 1.06228 3.04402 75 66 59
0.203621 0.275645 2.93047 32 32 31
0.352255 0.948059 3.08537 8 8 7
0.407337 0.740255 3.01895 81 69 48
0.465728 0.770525 3.08598 13 12 8
0.526689 0.90287 3.07966 48 40 44
0.529543 0.904368 3.09267 48 40 44
1.00667 1.5428 4.10918 112 108 102
0.719694 0.184402 3.1671 127 127 125
0.894717 0.708447 3.61969 138 122 98
-1.59417 1.9344 3.53876 188 196 208
-1.18499 0.503014 3.23765 3 4 14
-1.20225 0.163448 3.34396 190 204 215
-0.702038 1.43997 3.35943 12 4 4
-0.552817 -0.21772 3.54654 127 128 62
0.530518 0.902191 3.09235 40 35 36
0.964658 0.600217 4.07446 30 26 22
-2.12088 2.08246 3.75539 140 118 74
-1.29393 1.73122 3.08317 18 16 20
-1.96478 -0.739953 5.1976 17 19 22
-1.58689 0.603275 4.13518 108 111 120
0.0504909 -0.0402521 3.15046 30 34 48
-1.85868 1.81909 3.73041 182 191 206
-2.38796 -0.164478 4.9639 164 168 168
-1.05775 0.206351 3.22578 4 12 23
-0.896866 0.873859 3.13582 124 50 6
-0.961475 -0.0194435 3.12016 119 124 132
-0.790121 0.401925 3.19583 38 34 28
-0.81124 -0.133714 3.23289 120 127 62
-0.69196 -0.133916 3.33362 119 120 58
-0.692205 -0.133841 3.33135 119 120 58
-0.669905 -0.268038 3.40212 66 66 23
-0.468555 0.178092 3.42588 52 53 43
0.031645 0.391131 2.96135 6 6 6
-1.97467 1.94151 3.75555 142 122 76
-2.42585 -0.132954 5.10357 190 186 142
-2.42722 -0.1851 5.10764 161 163 166
-1.34166 1.74162 3.19207 30 30 32
-1.42903 0.647745 2.92175 18 20 24
-1.1565 0.581991 3.16409 140 88 18
-1.01359 0.211632 3.17285 207 216 226
-0.775695 0.431747 3.20699 28 28 26
-0.774354 0.0474937 3.17687 120 122 52
-0.774654 -0.0667268 3.23419 28 23 4
-0.627405 1.00335 3.52701 69 62 46
-0.741234 -0.235848 3.33065 126 130 58
-0.716171 -0.108493 3.31466 18 16 0
-0.669235 -0.112105 3.35639 116 112 43
-0.669235 -0.112105 3.35639 116 112 43
-0.658323 -0.174074 3.38491 130 132 80
-0.666826 -0.29059 3.4242 124 130 61
-0.625742 -0.218875 3.42888 111 114 74
-0.599091 -0.0559143 3.39725 117 118 56
-0.576806 -0.31531 3.51497 124 129 60
-0.545365 -0.186528 3.49546 66 65 18
-0.529144 -0.199007 3.51581 128 132 74
-0.529216 -0.198654 3.51083 128 132 74
0.220816 0.717527 3.05891 7 6 4
0.185764 0.318498 2.92454 73 68 56
0.388533 0.845719 3.04168 12 5 2
-0.079427 0.275348 3.32384 129 137 150
0.180375 0.880215 3.06385 8 9 16
-1.50054 1.91568 3.44303 37 36 40
-1.50054 1.91568 3.44303 37 36 40
-1.48736 1.93259 3.43332 180 184 190
-1.45155 0.793979 2.78444 32 32 27
-1.70621 0.0920177 3.95519 164 162 164
-1.64255 -0.0333132 3.77618 186 198 216
-1.16541 0.129035 3.49218 93 105 124
-1.1287 0.164574 3.30351 196 210 220
-0.886761 0.622429 3.15451 20 26 25
-0.928815 0.0693527 3.11397 66 62 54
-0.846731 0.00971846 3.16263 65 61 22
-0.740183 0.303942 3.13585 36 39 36
-0.738642 -0.108182 3.30779 134 134 56
-0.748677 -0.240749 3.39957 69 66 20
-0.728776 -0.134183 3.35357 32 28 2
-0.671702 0.0366941 3.29399 56 54 30
-0.676021 -0.127585 3.40731 112 112 49
-0.676058 -0.293691 3.49041 74 73 24
-0.571916 0.141223 3.34557 90 93 86
-0.599271 -0.230633 3.53344 34 28 14
-0.426252 0.493719 2.92868 172 186 200
-0.388716 0.395754 2.95569 18 24 27
-0.284826 0.641289 2.70371 42 49 57
-0.342436 -0.670221 4.02201 106 110 110
0.0118621 0.362033 2.92288 8 8 12
0.244628 0.877577 3.16017 10 7 5
0.302466 0.177047 2.85805 10 10 10
0.458627 1.28897 3.37709 42 42 44
0.409439 0.414851 2.8084 50 40 29
0.639307 1.82324 3.69396 94 76 44
0.669222 1.83248 3.76633 82 65 33
0.431199 0.132162 2.91809 10 12 12
0.553266 0.943148 3.12546 112 89 59
0.546666 0.535404 3.00064 90 84 70
0.5563 0.126691 2.99073 21 21 20
0.753321 0.113868 3.21838 108 111 110
0.894692 0.719566 3.69854 27 22 18
0.859496 0.486506 3.50174 23 20 16
0.806636 0.277452 3.27638 36 34 32
-1.96257 0.883287 3.18875 99 97 96
-1.53243 1.90311 3.49242 167 168 176
-1.37492 1.79647 3.22024 30 28 33
-1.46217 0.0422611 3.59615 26 31 44
-1.46266 0.0430356 3.59431 26 31 44
-0.987597 0.732348 3.11256 70 71 46
-1.03243 0.179435 3.20044 22 28 40
-0.93356 0.669011 3.15119 34 40 24
-0.91482 0.669469 3.16477 120 124 114
-0.764772 1.64965 3.5455 86 34 12
-0.867237 0.275348 3.11769 62 64 63
-0.292905 0.881343 2.97638 12 13 22
-0.241705 0.863244 2.84173 9 12 28
-0.391081 -0.808294 4.07502 104 108 106
0.623588 0.528904 3.13205 90 84 72
