ply
format ascii 1.0
element vertex 1101
property float x
property float y
property float z
property uchar red
property uchar green
property uchar blue
end_header
-1.70755 0.937679 1.70163 0 255 0
-1.80193 0.931701 1.72103 0 255 0
-1.90343 0.889975 1.72119 0 255 0
-1.98605 0.87249 1.74612 0 255 0
-1.96343 0.789198 1.76868 0 255 0
-1.85337 0.792468 1.72412 0 255 0
-1.69147 0.825948 1.72354 0 255 0
-1.54842 0.850972 1.70312 0 255 0
-1.47461 0.864923 1.73395 0 255 0
-1.45008 0.925156 1.73948 0 255 0
-1.31364 1.48127 2.02456 0 255 0
-1.60538 0.938267 1.70526 0 255 0
-1.5196 1.02141 1.73633 0 255 0
-1.61313 1.02228 1.72221 0 255 0
-1.7147 1.04487 1.74182 0 255 0
-1.88484 1.02421 1.76599 0 255 0
-1.93472 1.0076 1.85067 0 255 0
-1.84389 0.81958 1.76121 0 255 0
-1.60515 0.732547 1.6979 0 255 0
-1.50206 0.754786 1.72195 0 255 0
-1.97121 0.683903 1.93593 0 255 0
-1.7623 0.661988 1.84052 0 255 0
-1.62379 0.929054 2.33164 10 14 20
-1.61577 0.934963 2.32751 12 16 26
-1.61579 0.935013 2.32755 12 16 26
-1.58347 0.76348 2.31871 18 19 39
-1.58284 0.762858 2.32004 18 19 39
-1.57686 0.765657 2.31421 208 218 238
-1.56772 0.767214 2.30614 199 210 220
-1.5647 0.766049 2.30251 34 34 50
-1.5612 0.772159 2.30253 36 42 54
-1.57785 0.93874 2.27695 183 191 200
-1.55824 0.768088 2.29763 25 28 38
-1.55765 0.773634 2.29916 24 28 44
-1.57096 0.936161 2.28327 191 198 209
-1.57327 0.875788 2.25092 13 13 8
-1.56883 0.925427 2.28062 20 20 28
-1.56542 0.920985 2.27049 12 8 17
-1.53952 0.774844 2.27691 66 72 82
-1.53405 0.781418 2.28194 13 14 26
-1.53359 0.776347 2.27966 20 21 28
-1.53076 0.781563 2.27898 199 206 216
-1.52807 0.782292 2.27669 19 23 31
-1.52426 0.764791 2.27257 81 78 48
-1.52222 0.785516 2.27477 174 186 200
-1.49125 0.686429 2.35072 175 178 179
-1.51321 0.801842 2.27863 108 118 134
-1.51416 0.786646 2.27135 67 66 64
-1.48455 0.818372 2.26378 108 115 136
-1.46801 0.857169 2.28888 36 36 31
-1.45892 0.825367 2.24903 6 9 22
-1.41671 0.798857 2.25341 39 36 30
-1.63614 0.686899 2.44658 93 97 100
-1.6368 0.929503 2.33612 6 6 6
-1.62649 0.926021 2.33258 8 11 16
-1.62649 0.925885 2.3322 8 11 16
-1.62346 0.931033 2.33155 164 170 182
-1.62114 0.93103 2.33059 17 18 26
-1.61372 0.824828 2.22745 140 154 160
-1.5848 0.738336 2.32199 90 94 90
-1.57346 0.766822 2.31172 190 200 210
-1.56245 0.768906 2.30238 14 16 33
-1.56123 0.771903 2.30247 34 38 50
-1.55835 0.768198 2.29757 22 22 31
-1.56476 0.920145 2.2683 178 185 193
-1.56542 0.897297 2.25667 194 202 204
-1.56343 0.930127 2.27054 17 17 18
-1.56361 0.90822 2.25837 194 199 202
-1.56353 0.904515 2.25665 183 190 194
-1.54854 0.806275 2.28614 104 110 113
-1.52679 0.791655 2.27872 132 141 156
-1.52644 0.791988 2.27892 130 137 152
-1.52379 0.79251 2.27681 18 16 14
-1.51937 0.78831 2.2699 155 162 174
-1.46513 0.703939 2.33965 176 180 184
-1.48172 0.839954 2.27138 80 83 94
-1.46276 0.858799 2.28527 47 46 42
-1.47173 0.810095 2.24924 8 8 11
-1.46258 0.84831 2.25696 10 10 14
-1.4238 0.781789 2.24948 52 54 50
-1.4238 0.781789 2.24948 52 54 50
-1.37775 0.777101 2.26244 174 174 176
-1.5678 0.767402 2.30624 172 179 194
-1.54046 0.776432 2.28688 139 144 158
-1.5193 0.773096 2.27156 82 80 76
-1.44569 0.864968 2.27323 131 130 130
-1.35037 0.78177 2.26962 160 150 131
-1.61035 0.842354 2.27621 20 16 18
-1.58375 0.944208 2.30046 179 187 200
-1.57932 0.866547 2.24969 184 186 193
-1.57691 0.832277 2.24857 104 105 100
-1.57033 0.933878 2.28213 38 40 46
-1.55722 0.767668 2.29509 14 18 41
-1.56672 0.927353 2.27444 20 20 26
-1.55741 0.836499 2.27758 82 83 77
-1.54008 0.780059 2.28492 16 20 32
-1.53709 0.773939 2.28102 14 18 36
-1.53502 0.82146 2.27841 5 4 3
-1.5289 0.787805 2.282 132 142 160
-1.44597 0.761558 2.31852 46 49 48
-1.67442 0.75158 2.46702 207 222 235
-1.66911 0.742863 2.46564 56 54 50
-1.6656 0.746629 2.46357 54 59 66
-1.66509 0.723722 2.45132 124 117 110
-1.65754 0.747305 2.45264 26 32 40
-1.65548 0.750881 2.45027 36 36 41
-1.64794 0.750868 2.44874 76 85 103
-1.62584 0.733517 2.44149 200 211 220
-1.60664 0.764544 2.41628 8 10 18
-1.62424 0.843072 2.28241 14 13 13
-1.59495 0.768199 2.3383 207 212 221
-1.5951 0.768306 2.33744 207 212 221
-1.59481 0.770418 2.33938 8 18 32
-1.59495 0.770485 2.33884 8 18 32
-1.59325 0.770973 2.33596 222 230 242
-1.5917 0.771762 2.33086 66 67 62
-1.58582 0.762687 2.32492 31 42 60
-1.58945 0.906348 2.28981 108 124 151
-1.57824 0.78951 2.31436 168 186 198
-1.58457 0.942356 2.30102 22 30 36
-1.57422 0.803078 2.27915 14 14 22
-1.56559 0.793118 2.3016 133 14 16
-1.57698 0.832314 2.24853 116 118 111
-1.57837 0.868248 2.25109 30 26 27
-1.57823 0.868169 2.25083 30 26 27
-1.57256 0.931073 2.2859 22 24 28
-1.56776 0.842685 2.24465 24 24 18
-1.52837 0.782462 2.27538 19 20 32
-1.53087 0.830986 2.27365 52 52 43
-1.52226 0.762571 2.27271 206 210 216
-1.51569 0.767649 2.27077 104 107 100
-1.4924 0.740331 2.30131 115 116 58
-1.4939 0.746965 2.29624 56 54 28
-1.49063 0.740592 2.30036 47 44 22
-1.48691 0.820727 2.26821 6 8 23
-1.46379 0.784258 2.28409 52 62 84
-1.47038 0.849966 2.26385 118 118 123
-1.45691 0.842696 2.2526 6 6 9
-1.45963 0.846744 2.24887 147 146 146
-1.41126 0.943218 2.33206 58 53 54
-1.42152 0.796915 2.2591 88 94 114
-1.4091 0.834041 2.26382 97 93 71
-1.40367 0.780539 2.25399 55 56 56
-1.40367 0.780539 2.25399 55 56 56
-1.3807 0.762449 2.26824 10 8 8
-1.3759 0.76864 2.25968 161 151 140
-1.63928 0.700244 2.43751 24 26 32
-1.61247 0.930199 2.32623 2 4 8
-1.59072 0.77542 2.33871 190 198 212
-1.58747 0.757244 2.31823 42 44 64
-1.53064 0.830989 2.27431 54 56 41
-1.52592 0.831781 2.27574 4 4 1
-1.45525 0.807265 2.24922 122 130 147
-1.44357 0.864681 2.27034 123 121 110
-1.41685 0.853587 2.26706 7 4 2
-1.40196 0.832486 2.26877 62 56 46
-1.3765 0.771358 2.27365 69 70 70
-1.57391 0.834783 2.24839 114 117 106
-1.44469 0.791382 2.2706 105 120 142
-1.55205 0.804402 2.2949 4 10 18
-1.541 0.767343 2.26347 140 147 164
-1.42313 0.769416 2.29085 106 115 134
-1.37731 0.773197 2.27245 8 8 8
-1.37341 0.771098 2.27313 8 8 12
-1.5463 0.801937 2.29155 32 40 48
-1.52372 0.792585 2.27673 30 28 25
-1.58084 0.89412 1.9187 34 29 22
-1.36365 0.794084 2.28126 36 29 26
-1.51374 0.807873 2.27906 42 56 54
-1.46464 0.693542 2.34392 103 106 110
-1.66037 0.715946 2.44384 119 126 139
-1.65531 0.742545 2.45504 94 104 120
-1.63257 0.716794 2.4286 94 106 123
-1.60504 0.734932 2.38323 190 200 205
-1.61295 0.843304 2.27081 186 194 189
-1.61148 0.844448 2.26909 16 9 10
-1.59219 0.768852 2.33611 55 56 57
-1.59356 0.906556 2.28367 22 32 46
-1.56468 0.919981 2.26877 168 175 179
-1.51486 0.799906 2.28119 24 27 30
-1.51484 0.795999 2.27647 30 30 26
-1.48981 0.726546 2.32715 85 84 52
-1.50056 0.762234 2.28735 113 109 52
-1.49215 0.739013 2.30227 106 106 51
-1.41602 0.8035 2.25572 42 37 36
-1.35735 0.830892 2.3031 28 22 16
-1.35724 0.826408 2.29644 148 142 135
-1.67194 0.754677 2.45885 12 10 10
-1.6684 0.738027 2.45449 57 50 36
-1.66284 0.744723 2.45235 208 212 217
-1.63241 0.928658 2.33591 72 74 84
-1.59796 0.763616 2.35713 196 209 226
-1.60951 0.842653 2.27012 166 171 178
-1.57498 0.768384 2.31653 208 216 226
-1.58368 0.862601 2.25161 12 10 8
-1.58157 0.862832 2.25295 172 182 189
-1.58219 0.863634 2.24994 172 182 189
-1.57068 0.936012 2.28503 180 192 201
-1.56041 0.919195 2.26642 21 23 26
-1.56 0.916252 2.26441 21 19 24
-1.51269 0.803004 2.28511 14 16 18
-1.50128 0.762822 2.28551 111 108 56
-1.5019 0.770413 2.28274 52 54 48
-1.495 0.769856 2.2881 62 64 62
-1.48205 0.771941 2.30045 92 94 92
-1.40952 0.840318 2.27193 46 42 40
-1.38592 0.83572 2.26846 24 23 20
-1.37293 0.803915 2.27006 104 99 94
-1.24725 0.793759 2.48909 34 27 22
-1.59862 0.69794 2.40193 26 7 11
-1.59596 0.734836 2.38436 192 198 196
-1.58914 0.736764 2.38348 183 198 216
-1.56925 0.768035 2.30827 206 222 243
-1.38758 0.752575 2.26423 44 46 46
-1.65478 0.762651 2.46119 32 35 46
-1.46946 0.84877 2.26355 7 7 9
-1.38593 0.975979 3.31765 76 80 82
-1.48126 0.816876 2.26324 28 34 46
-1.43454 0.79856 2.26464 8 10 14
-1.35967 0.818148 2.28723 124 106 78
-1.49741 0.766655 2.28727 44 44 18
-1.63417 0.917177 2.33452 161 166 179
-1.61327 0.936496 2.3264 26 30 38
-1.61591 0.841819 2.2719 140 150 158
-1.60955 0.843331 2.26754 150 167 170
-1.5746 0.76821 2.31264 45 50 70
-1.57419 0.768066 2.31321 45 50 70
-1.56795 0.781474 2.29823 164 178 198
-1.56123 0.768796 2.30076 184 190 210
-1.57202 0.936973 2.28479 10 12 21
-1.55046 0.773207 2.293 6 9 20
-1.57072 0.93619 2.28369 186 196 204
-1.54626 0.774863 2.28994 192 197 210
-1.56448 0.899428 2.2565 12 10 16
-1.56463 0.899456 2.25633 12 10 16
-1.56341 0.904688 2.25694 184 194 197
-1.53647 0.785195 2.28633 142 154 172
-1.53113 0.764717 2.27459 72 78 75
-1.53055 0.779301 2.27912 14 14 20
-1.53077 0.779362 2.27879 14 14 20
-1.53237 0.791841 2.27729 128 138 154
-1.51 0.796311 2.27613 26 22 24
-1.48641 0.818491 2.26725 7 6 16
-1.47007 0.848895 2.26245 10 10 12
-1.45069 0.862644 2.2754 76 76 74
-1.42528 0.747255 2.28398 6 6 10
-1.43137 0.79502 2.26234 65 75 96
-1.39103 0.749609 2.27028 100 102 105
-1.40819 0.84422 2.2603 10 4 32
-1.6119 0.70736 2.40324 34 37 44
-1.60495 0.731649 2.39056 27 32 38
-1.5999 0.735513 2.39001 194 201 202
-1.59824 0.737034 2.388 18 25 29
-1.58149 0.723369 2.38703 228 238 238
-1.5792 0.703639 2.38416 114 118 121
-1.57914 0.703571 2.38416 114 118 121
-1.57457 0.722494 2.38745 102 98 96
-1.61589 0.841794 2.27197 141 156 160
-1.58681 0.740138 2.32441 200 208 224
-1.58413 0.738128 2.32217 77 76 70
-1.57116 0.763369 2.30843 174 178 193
-1.55825 0.802736 2.2908 5 7 16
-1.57296 0.938172 2.28622 180 186 202
-1.57184 0.936861 2.28514 14 18 28
-1.55638 0.805878 2.2847 10 11 17
-1.48664 0.780887 2.42732 8 10 18
-1.56481 0.922257 2.27057 22 29 36
-1.56451 0.920256 2.26869 171 180 191
-1.56474 0.911618 2.2635 12 12 21
-1.52058 0.799135 2.28274 85 85 94
-1.51902 0.792559 2.27578 46 44 46
-1.46068 0.767594 2.30848 69 74 72
-1.46068 0.767594 2.30848 69 74 72
-1.44727 0.765145 2.31392 106 110 110
-1.44103 0.763481 2.30805 28 29 32
-1.43892 0.753181 2.30848 171 174 174
-1.43027 0.766096 2.29595 13 14 16
-1.44625 0.863283 2.27228 126 122 122
-1.38602 0.878598 2.28934 9 8 4
-1.3952 0.834373 2.26253 8 5 2
-1.38993 0.856209 2.26139 41 36 46
-1.54656 0.811839 2.28168 8 8 11
-1.56369 0.906363 2.25788 25 22 28
-1.47798 0.712853 2.32509 132 136 136
-1.44658 0.761346 2.31701 50 56 48
-1.67481 0.751819 2.46633 212 228 238
-1.61872 0.760066 2.42451 46 54 74
-1.59867 0.737315 2.3872 14 26 30
-1.59421 0.720951 2.39729 74 81 84
-1.59217 0.736094 2.38548 15 22 30
-1.59526 0.770523 2.33809 12 10 16
-1.59477 0.770379 2.33926 12 10 16
-1.5481 0.772067 2.28971 12 14 23
-1.54388 0.777076 2.28862 22 22 33
-1.52683 0.791236 2.27894 122 130 148
-1.44735 0.761836 2.31635 42 46 46
-1.45808 0.839281 2.2458 13 13 20
-1.66846 0.751527 2.46935 86 72 62
-1.66584 0.755492 2.4652 210 224 232
-1.66074 0.715253 2.44388 122 123 132
-1.61684 0.706682 2.40545 38 41 46
-1.64851 0.863493 2.31509 13 13 12
-1.64294 0.900751 2.33379 1 2 10
-1.64352 0.850974 2.30487 10 10 8
-1.60671 0.7304 2.39258 191 202 204
-1.60307 0.735418 2.38675 86 97 104
-1.59292 0.715161 2.40929 16 19 23
-1.63068 0.919294 2.33304 6 6 8
-1.63134 0.842661 2.28708 160 158 164
-1.58791 0.731437 2.3845 206 215 222
-1.59741 0.775166 2.34798 88 88 94
-1.61279 0.931178 2.32543 12 12 17
-1.59301 0.770764 2.33727 216 223 232
-1.58487 0.738539 2.32108 98 101 99
-1.61111 0.844056 2.27002 14 6 10
-1.58059 0.762844 2.31592 165 170 185
-1.58092 0.762898 2.31537 165 170 185
-1.57583 0.767542 2.31398 22 32 50
-1.52958 0.695566 2.34079 136 140 146
-1.56832 0.938486 2.28013 14 14 18
-1.52132 0.795394 2.2843 18 17 16
-1.51968 0.770707 2.27221 76 72 66
-1.51532 0.837316 2.27805 18 18 16
-1.45494 0.855259 2.27389 8 8 8
-1.45839 0.855711 2.26765 8 8 8
-1.44404 0.811012 2.25019 6 6 6
-1.40901 0.840073 2.2723 44 43 38
-1.64917 0.696408 2.45988 100 106 109
-1.64659 0.693984 2.44779 184 186 187
-1.61222 0.703505 2.40178 58 8 10
-1.59828 0.697353 2.40358 24 5 6
-1.59653 0.793067 2.32343 142 152 164
-1.59022 0.772847 2.32822 97 96 92
-1.58739 0.790831 2.31666 151 164 178
-1.52977 0.695811 2.34066 134 140 145
-1.44623 0.865297 2.2732 126 126 124
-1.46487 0.693756 2.34312 108 112 114
-1.568 0.927771 2.27672 134 139 150
-1.568 0.927771 2.27672 134 139 150
-1.44577 0.865318 2.27396 114 114 111
-1.67238 0.744312 2.46618 40 42 44
-1.66816 0.755881 2.46577 24 34 40
-1.66315 0.756939 2.46363 70 61 42
-1.60682 0.730548 2.39225 180 190 192
-1.59381 0.741038 2.38567 184 197 212
-1.59751 0.775822 2.34842 24 28 35
-1.59663 0.775036 2.35015 24 28 35
-1.55776 0.765618 2.29624 182 196 214
-1.55401 0.782819 2.29978 170 186 203
-1.51375 0.794688 2.27555 104 112 126
-1.47985 0.773691 2.30158 48 50 44
-1.42925 0.732156 2.33336 170 173 173
-1.64258 0.688374 2.45688 181 182 186
-1.63846 0.686411 2.45801 64 66 69
-1.63366 0.701622 2.44802 171 179 199
-1.63239 0.698858 2.44337 34 39 46
-1.63131 0.700026 2.44692 24 28 38
-1.63858 0.777073 2.45542 10 12 24
-1.6281 0.800254 2.45924 30 33 44
-1.6296 0.744523 2.41687 175 183 202
-1.62741 0.742753 2.42138 175 183 202
-1.60319 0.706811 2.40621 8 6 10
-1.60847 0.750333 2.39386 164 174 193
-1.59565 0.705828 2.40501 78 80 73
-1.64943 0.867504 2.31953 9 7 10
-1.59533 0.758463 2.40088 7 14 28
-1.58163 0.694825 2.3964 11 14 15
-1.58243 0.716144 2.39188 20 22 26
-1.5807 0.723275 2.39738 10 18 30
-1.57851 0.727893 2.38418 18 18 26
-1.57217 0.7219 2.39142 98 96 90
-1.6346 0.845002 2.29512 128 138 146
-1.57264 0.706296 2.37827 117 120 122
-1.55149 0.695948 2.3942 96 99 106
-1.6141 0.937853 2.32696 166 169 182
-1.59874 0.942722 2.31555 20 17 27
-1.59868 0.942752 2.31554 18 16 28
-1.59574 0.943616 2.31304 11 14 25
-1.51009 0.691447 2.35286 178 180 184
-1.57956 0.81946 2.26057 82 87 94
-1.58793 0.859538 2.2559 12 9 15
-1.58676 0.857978 2.25312 11 8 12
-1.58526 0.860731 2.25181 142 156 166
-1.58269 0.863564 2.24902 163 180 186
-1.45628 0.692263 2.39406 121 122 121
-1.58085 0.865691 2.25228 172 186 192
-1.58065 0.864733 2.24914 12 8 14
-1.54302 0.807245 2.28561 40 40 42
-1.57603 0.871935 2.24876 128 139 149
-1.57102 0.878989 2.25525 14 12 18
-1.57088 0.880181 2.24979 158 170 182
-1.53154 0.764794 2.27383 66 68 62
-1.56412 0.916846 2.26672 152 162 173
-1.56727 0.854673 2.15496 112 106 103
-1.45285 0.862456 2.27756 84 82 80
-1.42639 0.76182 2.27346 100 102 127
-1.40455 0.73574 2.272 172 173 175
-1.67421 0.75177 2.46685 230 242 251
-1.66458 0.73829 2.46771 140 145 156
-1.64826 0.784443 2.46953 56 60 70
-1.64334 0.743033 2.43765 186 194 216
-1.63712 0.810312 2.47362 55 61 72
-1.63428 0.746415 2.43232 176 184 204
-1.63428 0.746415 2.43232 176 184 204
-1.62665 0.743254 2.42343 178 188 204
-1.62261 0.782342 2.44122 10 14 20
-1.62208 0.769217 2.43627 70 72 83
-1.62259 0.769113 2.43538 70 72 83
-1.62187 0.77112 2.43268 14 18 30
-1.6087 0.73394 2.39657 17 23 30
-1.60719 0.748363 2.4041 31 34 39
-1.62188 0.932667 2.39584 110 81 54
-1.58979 0.721396 2.39411 12 16 21
-1.58106 0.723132 2.38824 231 240 240
-1.57543 0.724132 2.3857 106 106 100
-1.63051 0.84463 2.29037 6 6 9
-1.61727 0.84195 2.2764 154 162 167
-1.59201 0.943246 2.3087 22 24 36
-1.56567 0.793404 2.30165 156 10 3
-1.55715 0.773544 2.30014 14 14 22
-1.54169 0.773079 2.28569 140 142 166
-1.57718 0.871248 2.25257 14 12 21
-1.53331 0.77369 2.27727 123 129 148
-1.56587 0.922331 2.26883 52 58 72
-1.56439 0.909023 2.26179 16 18 30
-1.52793 0.782099 2.27693 9 8 14
-1.52164 0.795668 2.28286 23 21 20
-1.51925 0.762271 2.27241 60 59 52
-1.5074 0.805491 2.27888 70 71 76
-1.42817 0.753578 2.31065 66 68 69
-1.42222 0.796969 2.25696 58 58 62
-1.38901 0.865706 2.27177 200 203 228
-0.213509 0.623829 3.44861 158 136 105
-1.65661 0.734659 2.45151 198 208 218
-1.64902 0.792154 2.47179 59 64 76
-1.64192 0.818481 2.47857 54 58 70
-1.64091 0.791438 2.46181 56 60 72
-1.61613 0.707071 2.40659 26 26 38
-1.59604 0.718143 2.40166 8 10 13
-1.59809 0.784425 2.4157 54 58 68
-1.59645 0.765509 2.40627 178 184 204
-1.59956 0.733043 2.38674 204 212 212
-1.59639 0.765411 2.40335 173 184 200
-1.64657 0.856655 2.30978 145 148 158
-1.58348 0.720869 2.37989 104 111 130
-1.5995 0.766265 2.3599 22 23 33
-1.59952 0.773715 2.35122 206 214 231
-1.59789 0.771684 2.34791 150 158 177
-1.57187 0.715266 2.36719 114 122 144
-1.592 0.770752 2.33875 115 116 126
-1.58586 0.781644 2.34106 24 31 42
-1.61612 0.841887 2.27897 143 147 154
-1.60594 0.84401 2.26545 127 132 136
-1.55102 0.772736 2.34112 158 174 193
-1.56731 0.765804 2.30473 176 184 206
-1.5911 0.909746 2.2978 10 9 38
-1.56086 0.768367 2.30138 168 176 193
-1.56094 0.767856 2.3011 168 176 193
-1.56094 0.767856 2.3011 168 176 193
-1.57959 0.823372 2.25893 6 6 8
-1.58578 0.85741 2.25887 166 176 188
-1.54624 0.774864 2.29022 184 190 207
-1.56658 0.927442 2.27472 20 18 28
-1.56568 0.916618 2.27212 12 11 16
-1.56167 0.901692 2.25916 186 187 194
-1.49282 0.86488 2.35587 6 6 6
-1.47131 0.775364 2.29496 123 128 126
-1.47263 0.801645 2.26433 30 32 36
-1.44357 0.807843 2.25477 12 13 14
-1.40975 0.842442 2.26795 8 7 4
-1.60454 0.731625 2.39201 63 72 80
-1.56804 0.70734 2.37598 123 124 124
-1.58945 0.745466 2.31772 116 125 132
-1.58436 0.794808 2.31198 38 47 55
-1.52986 0.699468 2.34447 30 32 31
-1.51775 0.797543 2.27941 16 12 10
-1.38609 0.755316 2.25956 153 148 143
-1.46174 0.826077 2.23975 126 132 144
-1.67348 0.760611 2.47249 164 154 139
-1.64671 0.877207 2.5216 174 173 187
-1.64671 0.877207 2.5216 174 173 187
-1.60005 0.770997 2.35411 14 20 31
-1.59767 0.763058 2.35582 18 26 48
-1.6237 0.840997 2.27982 54 62 68
-1.62093 0.84077 2.27648 10 10 8
-1.59173 0.853567 2.25589 13 10 14
-1.57654 0.870381 2.25015 69 80 92
-1.53804 0.778598 2.28448 9 12 21
-1.52234 0.756654 2.27409 70 68 58
-1.52531 0.790535 2.27597 126 138 156
-1.44411 0.867603 2.27114 13 12 10
-1.40168 0.854075 2.26168 6 6 5
-1.64919 0.862629 2.51421 162 170 191
-1.64856 0.784399 2.46929 52 56 68
-1.64807 0.858537 2.49815 24 25 36
-1.62042 0.823358 2.46183 46 50 58
-1.61272 0.769783 2.41965 18 19 28
-1.59275 0.73091 2.38323 190 202 218
-1.61243 0.937601 2.32415 11 8 12
-1.59875 0.942802 2.31554 18 15 28
-1.59267 0.943223 2.3107 182 191 206
-1.56475 0.765966 2.30241 14 14 22
-1.58741 0.943195 2.30425 70 78 96
-1.5634 0.914808 2.26305 174 185 192
-1.51634 0.800338 2.27988 24 22 22
-1.62937 0.716844 2.41722 200 211 223
-1.59622 0.765396 2.4069 182 188 208
-1.59374 0.76509 2.4002 169 178 194
-1.62945 0.842567 2.2906 162 169 173
-1.59358 0.943732 2.31083 164 176 190
-1.5016 0.682889 2.36656 129 133 138
-1.57567 0.810483 2.27168 8 10 14
-1.48564 0.782924 2.2899 30 28 24
-1.61085 0.797496 2.33999 12 14 24
-1.52488 0.779236 2.27177 144 156 176
-1.43794 0.792533 2.29145 74 84 100
-1.66074 0.904993 2.33686 23 10 2
-1.85944 0.951935 2.38014 115 82 36
-1.57227 0.778735 2.31979 96 114 138
-1.65671 0.846448 2.52896 16 14 16
-1.65779 0.713965 2.44072 218 226 235
-1.65301 0.751672 2.45345 12 12 16
-1.64002 0.817968 2.48277 54 59 68
-1.64142 0.740312 2.43427 178 184 204
-1.63471 0.817605 2.47864 12 17 26
-1.63471 0.817605 2.47864 12 17 26
-1.63435 0.812499 2.47543 15 21 32
-1.63477 0.768238 2.44813 8 13 24
-1.63155 0.799219 2.46376 10 14 26
-1.62656 0.746008 2.42437 170 176 194
-1.61988 0.760376 2.42165 16 16 21
-1.60752 0.763902 2.40823 4 4 10
-1.6575 0.849996 2.33619 94 100 114
-1.59863 0.732647 2.38811 208 214 212
-1.58436 0.717415 2.38885 22 22 28
-1.58526 0.712479 2.38506 33 34 40
-1.58922 0.735871 2.38365 148 152 169
-1.58376 0.720159 2.38197 116 124 145
-1.64778 0.863225 2.31664 12 9 10
-1.59812 0.765884 2.35948 12 14 20
-1.59893 0.770632 2.3562 8 18 21
-1.59927 0.773564 2.35169 148 157 173
-1.57376 0.71197 2.36956 10 10 15
-1.64542 0.83539 2.28321 59 62 72
-1.63592 0.847167 2.29431 16 14 18
-1.56014 0.717018 2.3629 28 30 36
-1.63365 0.845843 2.2914 22 23 27
-1.59045 0.75576 2.32311 134 143 160
-1.58987 0.759535 2.32364 14 12 23
-1.58915 0.755122 2.32078 138 146 164
-1.58596 0.758134 2.3225 154 156 178
-1.58132 0.764307 2.31705 156 158 181
-1.61432 0.934888 2.32682 170 174 182
-1.59101 0.795071 2.30933 30 34 46
-1.579 0.765706 2.31596 14 14 20
-1.56704 0.765024 2.30494 195 194 220
-1.59845 0.942775 2.31561 20 19 29
-1.56198 0.769101 2.3003 148 151 166
-1.55335 0.769414 2.29458 13 12 20
-1.58716 0.94292 2.30453 24 24 38
-1.58441 0.942679 2.30175 28 30 46
-1.46872 0.692231 2.34719 130 135 139
-1.54011 0.774543 2.28397 96 100 114
-1.52871 0.778944 2.27513 96 98 116
-1.52811 0.77741 2.27455 5 6 16
-1.52041 0.797396 2.28227 80 73 71
-1.56591 0.90916 2.26491 18 16 21
-1.51483 0.800331 2.28182 26 22 20
-1.48495 0.798123 2.28021 8 8 10
-1.51556 0.866389 2.26747 68 58 44
-1.51556 0.866389 2.26747 68 58 44
-1.43341 0.759387 2.3005 135 138 141
-1.38903 0.758172 2.25785 160 150 134
-1.39634 0.842253 2.2631 44 41 28
-1.39434 0.840979 2.25671 122 99 58
-1.66154 0.854244 2.52216 121 116 118
-1.66988 0.798854 2.50017 151 126 88
-1.64095 0.740102 2.43609 185 192 210
-1.6326 0.845624 2.29281 14 13 16
-1.56609 0.750788 2.30477 94 104 116
-1.61108 0.841201 2.26788 12 13 18
-1.59811 0.823191 2.2563 23 22 24
-1.59607 0.820957 2.2584 95 99 97
-1.55041 0.769429 2.29241 14 20 28
-1.56924 0.884237 2.25113 25 26 29
-1.46468 0.82188 2.24291 16 16 22
-1.39782 0.879892 2.27409 102 84 59
-1.43302 0.772914 2.28014 76 77 77
-1.37316 0.772001 2.27014 142 142 140
-1.40683 0.864766 2.32789 17 16 14
-1.58843 0.945029 2.30586 164 172 183
-1.58121 0.940354 2.29807 32 38 49
-1.57129 0.936277 2.28307 179 192 201
-1.57243 0.877478 2.24926 162 168 170
-1.56361 0.914978 2.26287 162 169 179
-1.65889 0.881125 2.53387 97 64 32
-1.65379 0.855768 2.51418 11 12 20
-1.65104 0.887143 2.52577 136 118 104
-1.64547 0.830544 2.49302 50 54 64
-1.64547 0.830544 2.49302 50 54 64
-1.64999 0.739589 2.44189 172 182 202
-1.64999 0.739589 2.44189 172 182 202
-1.64604 0.740278 2.4411 176 186 206
-1.62787 0.813716 2.46378 12 16 27
-1.56835 0.766854 2.30842 181 186 214
-1.56723 0.768959 2.30555 147 154 171
-1.59458 0.948616 2.31466 6 8 12
-1.59408 0.943855 2.3118 172 181 194
-1.5936 0.94211 2.31148 10 10 19
-1.59004 0.945256 2.309 172 176 188
-1.59004 0.945256 2.309 172 176 188
-1.54572 0.774084 2.28964 167 168 186
-1.56403 0.918479 2.26669 24 26 36
-1.42889 0.795495 2.25863 51 54 66
-1.39155 0.879282 2.28016 126 112 90
-1.39102 0.849372 2.26299 66 48 26
-1.66398 0.767857 2.49858 36 32 33
-1.6285 0.735535 2.42027 176 184 198
-1.60761 0.802386 2.35184 20 24 32
-1.49067 0.684778 2.37254 176 178 183
-1.59511 0.820793 2.25966 84 86 86
-1.54967 0.77302 2.29422 12 16 24
-1.525 0.771738 2.27011 126 132 144
-1.43089 0.756633 2.27371 16 16 20
-1.39907 0.800035 2.24536 48 38 24
-1.61746 0.682048 2.46286 136 126 112
-1.6419 0.761422 2.45251 17 20 29
-1.55253 0.774543 2.29767 8 7 11
-1.54999 0.7715 2.29161 85 90 92
-1.57159 0.825973 2.25508 45 46 46
-1.54982 0.771527 2.292 110 123 134
-1.58569 0.9447 2.30312 155 170 182
-1.64706 0.889997 2.33144 181 186 199
-1.6278 0.946533 2.33548 105 79 46
-1.6059 0.822287 2.26193 11 12 15
-1.53725 0.781609 2.3315 122 132 152
-1.63342 0.691542 2.43934 72 76 80
-1.59082 0.724515 2.39052 86 96 102
-1.57906 0.719614 2.38976 102 112 132
-1.59187 0.823203 2.25591 42 46 34
-1.60829 0.94704 2.27124 95 100 122
-1.58369 0.944256 2.30063 184 188 209
-1.42666 0.741822 2.28936 70 65 58
-1.6115 0.720862 2.3988 38 44 47
-1.60289 0.745641 2.39059 170 179 194
-1.57124 0.768789 2.31067 44 44 58
-1.56725 0.765379 2.30499 203 205 224
-1.63431 0.708832 2.41411 18 22 34
-1.59732 0.765587 2.35706 10 16 33
-1.58826 0.805017 2.32692 58 63 76
-1.56316 0.913519 2.26225 38 37 45
-1.45446 0.78601 2.2162 62 65 79
-1.40248 0.794973 2.23601 34 28 20
-1.40248 0.794973 2.23601 34 28 20
-1.67528 0.754567 2.46665 222 230 245
-1.71502 0.815649 2.39494 170 155 136
-1.65587 0.776814 2.47106 60 66 78
-1.65652 0.744931 2.45281 188 195 214
-1.64196 0.759616 2.4486 62 64 72
-1.63823 0.740545 2.43167 175 186 204
-1.61555 0.771977 2.42845 12 16 27
-1.60364 0.735445 2.39263 176 186 186
-1.59922 0.755684 2.40478 22 36 52
-1.59585 0.738008 2.38698 199 206 208
-1.63143 0.842748 2.28702 185 190 200
-1.57402 0.759927 2.30956 152 160 178
-1.55126 0.770893 2.29317 189 190 218
-1.5919 0.85362 2.25538 14 6 10
-1.58243 0.86365 2.24956 182 190 198
-1.53114 0.774299 2.27517 110 115 136
-1.48634 0.795284 2.27594 10 10 14
-1.4184 0.801472 2.25485 124 123 116
-1.64395 0.700402 2.46242 140 144 149
-1.65266 0.76846 2.4612 50 54 65
-1.63779 0.695426 2.45648 30 27 30
-1.63618 0.685414 2.44638 79 85 85
-1.65461 0.914684 2.34191 123 92 54
-1.58026 0.723408 2.39017 228 236 239
-1.60487 0.770426 2.36615 155 160 172
-1.60487 0.770426 2.36615 155 160 172
-1.56778 0.778823 2.33855 134 150 174
-1.57329 0.875001 2.25365 166 170 182
-1.42514 0.78463 2.25052 43 42 48
-1.41606 0.852815 2.27041 174 178 202
-1.63274 0.701849 2.45099 162 176 204
-1.63101 0.704879 2.44631 28 30 41
-1.62967 0.702438 2.43492 12 14 20
-1.5875 0.72069 2.39905 12 18 25
-1.43408 0.749076 2.33338 138 144 142
-1.96003 0.94924 2.394 119 88 36
-1.95341 0.944256 2.40209 125 94 42
-1.93707 0.943355 2.40202 123 92 40
-1.91874 0.943347 2.40099 128 96 46
-1.90948 0.944426 2.39856 120 89 40
-1.90948 0.944426 2.39856 120 89 40
-1.88177 0.949012 2.38708 128 98 48
-1.87808 0.947423 2.3893 124 94 46
-1.86315 0.953578 2.37653 118 85 36
-1.84747 0.951911 2.37953 124 94 42
-1.93796 0.943644 2.40379 127 88 36
-1.79457 0.954302 2.36981 118 84 28
-1.61634 0.700777 2.40454 214 50 58
-1.56549 0.781985 2.31464 92 102 122
-1.55005 0.810567 2.28088 79 81 74
-1.5237 0.766789 2.27068 124 124 118
-1.42708 0.762509 2.27174 88 94 113
-1.42041 0.781568 2.27035 5 6 8
-1.43079 0.778433 2.2791 12 8 19
-1.57217 0.797254 2.29482 16 17 27
-1.46846 0.851574 2.25247 12 10 12
-1.58346 0.759692 2.31731 30 31 46
-1.65741 0.744578 2.45259 189 201 213
-1.59479 0.769783 2.40325 20 22 30
-1.5852 0.725087 2.37809 220 230 232
-1.58148 0.722481 2.37526 23 28 35
-1.61372 0.937914 2.32758 185 190 201
-1.56476 0.763293 2.30197 178 191 207
-1.58984 0.91208 2.29843 80 88 125
-1.5896 0.912013 2.29966 80 88 125
-1.58859 0.906508 2.28699 102 116 151
-1.56233 0.90821 2.25979 203 210 216
-1.66304 0.723739 2.44929 135 134 140
-1.59681 0.758949 2.35805 170 184 200
-1.5218 0.774699 2.27175 140 139 159
-1.94324 0.943579 2.40276 112 76 22
-1.87362 0.947654 2.38938 122 92 38
-1.87436 0.951053 2.40588 122 92 38
-1.6743 0.747771 2.45985 134 135 130
-1.67339 0.739433 2.45776 54 53 47
-1.66917 0.736306 2.45766 76 64 50
-1.66835 0.740665 2.46243 18 20 20
-1.67093 0.756523 2.4576 18 20 24
-1.66662 0.738974 2.46006 114 116 122
-1.66847 0.752311 2.45934 36 36 35
-1.66415 0.748555 2.45953 216 230 246
-1.66239 0.75101 2.46462 134 146 158
-1.66239 0.75101 2.46462 134 146 158
-1.66157 0.71527 2.44212 134 137 144
-1.65701 0.734318 2.45204 202 210 220
-1.65392 0.753521 2.45129 58 62 74
-1.63543 0.697983 2.43144 22 27 38
-1.63649 0.707335 2.42881 24 28 41
-1.63217 0.709446 2.40561 194 198 202
-1.62347 0.782558 2.43963 7 10 16
-1.61712 0.708902 2.40666 178 182 187
-1.61689 0.760952 2.42175 151 154 168
-1.61689 0.760952 2.42175 151 154 168
-1.63985 0.912595 2.4034 114 82 46
-1.61145 0.747836 2.40199 100 109 117
-1.60548 0.771811 2.41018 22 24 27
-1.60643 0.732124 2.38738 18 28 30
-1.60499 0.731619 2.39143 18 28 30
-1.59932 0.711185 2.39556 34 36 34
-1.60075 0.751441 2.40919 40 49 50
-1.57312 0.690536 2.41593 9 10 10
-1.58073 0.699488 2.38837 68 70 71
-1.6005 0.795941 2.37687 25 27 40
-1.58496 0.717414 2.37796 111 118 138
-1.58496 0.717414 2.37796 111 118 138
-1.57488 0.707191 2.37404 125 129 129
-1.59357 0.768719 2.3368 157 159 160
-1.58768 0.749289 2.3432 146 156 171
-1.59096 0.769004 2.33745 62 64 60
-1.57092 0.71334 2.36165 9 12 16
-1.59846 0.796655 2.32194 22 26 33
-1.55509 0.704918 2.373 115 117 116
-1.54808 0.703177 2.37611 106 108 110
-1.57235 0.794105 2.30319 162 168 182
-1.58493 0.915445 2.31771 12 13 20
-1.53141 0.696189 2.34633 212 220 228
-1.57019 0.795044 2.29873 154 158 174
-1.53261 0.700955 2.33901 31 30 26
-1.58625 0.910432 2.30001 102 116 156
-1.52914 0.697512 2.34047 161 170 180
-1.56642 0.796234 2.29748 157 154 158
-1.56109 0.793422 2.301 139 104 114
-1.57835 0.916948 2.30453 72 91 114
-1.50442 0.684061 2.36143 139 144 149
-1.55798 0.802745 2.29099 3 6 12
-1.55749 0.804918 2.28715 26 31 34
-1.55477 0.80271 2.28785 108 112 119
-1.55373 0.805251 2.28824 8 7 8
-1.57951 0.932899 2.27166 135 151 154
-1.54987 0.808348 2.28427 6 2 5
-1.49686 0.703107 2.33553 74 74 76
-1.52815 0.816369 2.28126 188 196 215
-1.52105 0.799682 2.28553 73 74 83
-1.47419 0.698155 2.32978 131 135 139
-1.50599 0.75315 2.28463 139 135 97
-1.51256 0.79096 2.27326 28 20 12
-1.50371 0.799014 2.2745 5 4 2
-1.47199 0.763373 2.30889 66 70 68
-1.4708 0.768777 2.30943 124 128 123
-1.47443 0.771603 2.29848 123 126 123
-1.4428 0.758034 2.31663 128 132 128
-1.44158 0.758284 2.30454 156 158 153
-1.47566 0.805841 2.26125 64 92 100
-1.43713 0.755111 2.30017 56 57 56
-1.47262 0.811922 2.26123 14 18 30
-1.4308 0.780641 2.26068 6 6 7
-1.42859 0.799026 2.2585 78 83 89
-1.42453 0.78711 2.26038 6 6 9
-1.4312 0.837172 2.25684 4 3 2
-1.4312 0.837172 2.25684 4 3 2
-1.41379 0.788625 2.25648 6 7 6
-1.40625 0.833872 2.26744 116 112 91
-1.39554 0.759962 2.26205 64 63 59
-1.40953 0.836072 2.26205 10 8 6
-1.38801 0.756343 2.2619 27 22 18
-1.37985 0.773091 2.27409 9 10 10
-1.37985 0.773091 2.27409 9 10 10
-1.40215 0.83762 2.26196 6 6 1
-1.37859 0.770517 2.2696 50 49 48
-1.3871 0.779439 2.25704 11 12 12
-1.40006 0.852851 2.25766 112 90 63
-1.39279 0.868918 2.2685 71 52 24
-1.39067 0.857516 2.26663 134 137 164
-1.60402 0.718057 2.39921 106 112 110
-1.75715 0.742496 2.0553 160 147 122
-1.63293 0.701886 2.45103 154 170 196
-1.63142 0.707083 2.45479 208 220 228
-1.62664 0.700957 2.4227 152 152 148
-1.57769 0.705141 2.38814 63 66 71
-1.56463 0.699843 2.38791 172 178 178
-1.61059 0.843379 2.26927 22 18 19
-1.54088 0.689811 2.61362 28 30 36
-1.96718 0.952402 2.3881 127 95 44
-1.8818 0.948884 2.38703 126 94 44
-1.65596 0.688702 2.42677 168 173 176
-1.60675 0.730344 2.39346 206 218 208
-1.64287 0.934749 2.33755 136 116 75
-1.56615 0.89678 2.25573 202 204 218
-1.56615 0.89678 2.25573 202 204 218
-1.50018 0.855237 2.2859 76 62 38
-1.63391 0.91931 2.33462 174 178 188
-1.61781 0.71128 2.39875 213 216 218
-1.61342 0.936312 2.32611 38 44 60
-1.57424 0.794491 2.30211 174 184 196
-1.5848 0.827257 2.25185 82 82 66
-1.56822 0.844808 2.24203 94 94 80
-1.50905 0.759973 2.27935 122 112 42
-1.46359 0.706566 2.34264 63 64 60
-1.53971 0.767991 2.2842 192 204 213
-1.63403 0.919572 2.33472 167 172 178
-1.52808 0.817563 2.28324 78 86 92
-1.63314 0.845873 2.29271 12 10 10
-1.57614 0.822793 2.2572 10 12 14
-1.42918 0.74662 2.34447 87 90 89
-1.4179 0.793274 2.2573 18 16 18
-1.57969 0.766303 2.31711 11 20 32
-1.62377 0.928971 2.33185 15 21 28
-1.58467 0.94222 2.30395 8 9 18
-1.57882 0.83651 2.24555 20 20 22
-1.53064 0.831058 2.27477 60 62 40
-1.52851 0.832677 2.27559 9 8 6
-1.51915 0.823779 2.27721 22 25 24
-1.51689 0.826032 2.27796 21 24 22
-1.51672 0.788332 2.27228 58 52 46
-1.51112 0.869651 2.28037 68 18 0
-1.50469 0.791842 2.27302 18 20 16
-1.50292 0.745087 2.28929 126 127 62
-1.49402 0.747032 2.29614 76 72 37
-1.47899 0.815583 2.2559 24 28 36
-1.46231 0.847908 2.25938 12 12 18
-1.45832 0.844191 2.25273 12 16 28
-1.44673 0.785183 2.26313 48 52 54
-1.4366 0.773383 2.27829 156 161 164
-1.41323 0.82403 2.27471 81 64 34
-1.41323 0.82403 2.27471 81 64 34
-1.40578 0.835753 2.26916 9 8 3
-1.40151 0.83631 2.26545 10 8 4
-1.3904 0.751044 2.27153 140 146 155
-1.37214 0.795939 2.27026 39 31 16
-1.38931 0.851212 2.26425 32 28 24
-1.58466 0.942246 2.30393 12 12 18
-1.58383 0.759262 2.31777 30 40 54
-1.56566 0.920507 2.27233 22 25 31
-1.39966 0.849687 2.26152 11 6 2
-1.59515 0.832996 2.27238 86 94 107
-1.5743 0.937202 2.29012 9 10 20
-1.58957 0.908696 2.29152 91 104 133
-1.64722 0.856122 2.3096 60 62 67
-1.66578 0.757005 2.45837 62 46 20
-1.63288 0.8459 2.29147 28 24 20
-1.60959 0.740899 2.40569 184 196 207
-1.59871 0.717278 2.39647 74 78 76
-1.57878 0.83653 2.24644 14 14 16
-1.57335 0.838871 2.24907 12 12 13
-1.57335 0.838871 2.24907 12 12 13
-1.58054 0.711551 2.36553 189 206 217
-1.56924 0.84084 2.24621 45 44 27
-1.5689 0.841924 2.24632 110 109 84
-1.56842 0.793221 2.30154 166 172 183
-1.56888 0.763852 2.30485 49 52 66
-1.56555 0.795035 2.29814 190 175 189
-1.55646 0.790845 2.3057 224 226 231
-1.55411 0.797658 2.29427 12 16 25
-1.54729 0.801937 2.29104 78 77 84
-1.53408 0.781365 2.2823 30 26 38
-1.52416 0.769529 2.27104 189 194 186
-1.51109 0.869817 2.28127 68 18 2
-1.51275 0.760853 2.27476 118 117 58
-1.50806 0.755256 2.2844 125 126 54
-1.5042 0.754563 2.28591 22 14 2
-1.49589 0.743796 2.29704 118 118 58
-1.46367 0.815658 2.2385 11 10 14
-1.44039 0.755291 2.31133 51 53 54
-1.43171 0.747697 2.28579 15 16 18
-1.40807 0.849768 2.26834 9 6 4
-1.37371 0.765915 2.2781 16 12 6
-1.61996 0.93794 2.27533 118 95 43
-1.52828 0.834984 2.27461 126 128 108
-1.51011 0.801021 2.27906 44 42 34
-1.49856 0.744159 2.29561 129 129 61
-1.49826 0.738938 2.29602 63 62 14
-1.49662 0.741965 2.29785 128 128 61
-1.49335 0.745882 2.29894 20 19 4
-1.49032 0.744565 2.30101 126 127 76
-1.48637 0.733979 2.30821 132 135 66
-1.48245 0.745252 2.30825 135 138 76
-1.38659 0.854977 2.27241 48 40 44
-1.56428 0.925634 2.26818 18 16 20
-1.61845 0.686248 2.469 17 19 22
-1.58775 0.816355 2.36827 108 111 120
-1.42787 0.76286 2.27598 30 34 48
-1.61876 0.931168 2.32938 182 191 206
-1.65952 0.739897 2.44122 164 168 168
-1.52251 0.845495 2.2733 124 50 6
-1.51011 0.801021 2.27906 38 34 28
-1.50958 0.749876 2.28265 120 127 62
-1.49822 0.750447 2.29182 119 120 58
-1.49833 0.750494 2.29155 119 120 58
-1.49563 0.737865 2.29806 66 66 23
-1.47866 0.781294 2.29987 52 53 43
-1.43168 0.80397 2.25621 6 6 6
-1.63185 0.942722 2.33377 142 122 76
-1.66406 0.743321 2.45358 190 186 142
-1.66389 0.738412 2.45375 161 163 166
-1.56974 0.926646 2.2815 30 30 32
-1.5725 0.821139 2.25654 18 20 24
-1.54608 0.816254 2.27813 140 88 18
-1.53051 0.781575 2.27813 207 216 226
-1.50892 0.803783 2.28129 28 28 26
-1.50684 0.767158 2.27781 120 122 52
-1.50635 0.756367 2.2826 28 23 4
-1.49794 0.859112 2.31049 69 62 46
-1.50243 0.740624 2.29072 126 130 58
-1.50067 0.752792 2.28959 18 16 0
-1.49624 0.752726 2.29334 116 112 43
-1.49624 0.752726 2.29334 116 112 43
-1.49493 0.74695 2.2957 130 132 80
-1.4952 0.735957 2.29876 124 130 61
-1.49167 0.74293 2.29948 111 114 74
-1.48974 0.758366 2.29765 117 118 56
-1.48666 0.734178 2.30686 124 129 60
-1.48429 0.746472 2.30543 66 65 18
-1.48245 0.745252 2.30825 128 132 74
-1.48272 0.745427 2.30674 128 132 74
-1.41526 0.835824 2.267 7 6 4
-1.4165 0.797582 2.25422 73 68 56
-1.39992 0.848839 2.26538 12 5 2
-1.44804 0.862625 2.27378 140 140 128
-1.67418 0.747453 2.46071 208 212 220
-1.5913 0.769066 2.34221 80 80 80
-1.57751 0.902231 2.30226 198 186 213
-1.57416 0.906887 2.31604 10 8 9
-1.5283 0.834978 2.2746 134 136 112
-1.49414 0.797442 2.28796 8 8 8
-1.32285 0.855892 2.46229 22 16 9
-1.70643 0.80218 2.4453 180 152 116
-1.44711 0.762734 2.31472 25 31 30
-1.38123 0.751183 2.26991 179 180 182
-1.37353 0.777099 2.26968 56 60 62
-1.37455 0.763237 2.28035 164 169 170
-1.61844 0.887951 2.03138 10 12 14
-1.40141 0.777671 2.30921 44 46 50
-1.61477 0.844142 2.27084 14 12 11
-1.59279 0.770388 2.33805 176 185 184
-1.49202 0.707874 2.31899 210 218 226
-1.46047 0.791568 2.27309 12 12 20
-1.46213 0.813882 2.24537 4 6 10
-1.43214 0.755477 2.28196 10 11 12
-1.65651 0.713652 2.44196 190 203 216
-1.43382 0.763276 2.29754 8 10 12
-1.43367 0.75824 2.29448 176 176 177
-1.30986 0.816607 2.29109 168 169 171
-1.62411 0.948378 2.35247 111 92 65
-1.65645 0.714973 2.43933 204 214 226
-1.63061 0.737705 2.4262 174 189 202
-1.62241 0.695873 2.40957 184 173 172
-1.61916 0.697136 2.4066 120 4 4
-1.61696 0.69999 2.41046 180 178 178
-1.61453 0.843635 2.27269 12 9 10
-1.60499 0.701971 2.40373 8 6 9
-1.60151 0.7024 2.40644 14 13 17
-1.5711 0.764904 2.31127 55 62 81
-1.56806 0.929642 2.27866 17 10 19
-1.53108 0.776865 2.27858 230 234 243
-1.38374 0.752823 2.26707 169 169 170
-1.34688 0.920933 2.35535 100 98 90
-1.3433 0.846071 2.33087 144 132 116
-1.61628 0.814773 2.34401 16 22 24
-1.59023 0.664835 2.74388 117 122 132
-1.55423 0.768237 2.29413 10 10 20
-1.7849 0.662207 2.50224 174 175 177
-1.65058 0.859587 2.52498 105 98 106
-1.64466 0.692281 2.45844 176 178 177
-1.58832 0.736057 2.32116 19 22 32
-1.58785 0.858571 2.25185 11 8 9
-1.55374 0.726289 2.31586 92 92 84
-1.55254 0.724344 2.31927 92 92 84
-1.5716 0.880611 2.24888 146 160 166
-1.43434 0.75548 2.29855 168 169 170
-1.42212 0.767991 2.28062 40 46 50
-1.59091 0.696361 2.39892 178 176 177
-1.58334 0.729172 2.32326 174 177 178
-1.43163 0.732212 2.32878 170 172 174
-1.42504 0.756996 2.27294 68 82 99
-1.42504 0.756996 2.27294 68 82 99
-1.69317 0.904557 2.15274 136 123 105
-1.65662 0.813582 2.61208 153 130 98
-1.58255 0.940578 2.29935 176 188 193
-1.56556 0.764531 2.30295 11 12 18
-1.56556 0.764531 2.30295 11 12 18
-1.55041 0.771001 2.29312 195 198 212
-1.51465 0.775333 2.27809 82 80 76
-1.41369 0.849047 2.26456 43 30 16
-1.3452 0.791495 2.30556 141 144 143
-1.62608 0.926235 2.33293 14 17 22
-1.60582 0.808282 2.48707 17 20 28
-1.44935 0.864157 2.27499 10 8 2
-1.61883 0.712598 2.39923 156 162 172
-1.60493 0.726295 2.39405 184 197 211
-1.59812 0.73683 2.38815 22 32 35
-1.63303 0.917012 2.33649 141 147 152
-1.59497 0.770128 2.33917 26 30 32
-1.61502 0.947925 2.34911 10 4 0
-1.59026 0.74932 2.32429 187 198 210
-1.55954 0.759886 2.35545 158 175 190
-1.58518 0.848577 2.33334 14 13 24
-1.59854 0.947499 2.34347 15 16 19
-1.58845 0.857863 2.25478 160 166 180
-1.5858 0.858923 2.25099 132 139 141
-1.5858 0.858923 2.25099 132 139 141
-1.52139 0.734445 2.29593 74 72 62
-1.57734 0.870828 2.24899 54 59 71
-1.52769 0.785017 2.27467 166 176 202
-1.56483 0.899433 2.2562 14 13 14
-1.53029 0.824691 2.27127 52 56 64
-1.51082 0.804812 2.2811 13 16 18
-1.44282 0.760894 2.30857 6 6 8
-1.43671 0.756551 2.29613 168 169 171
-1.39801 0.755879 2.2631 103 108 106
-1.38992 0.75647 2.26127 124 126 125
-1.38602 0.770581 2.26555 156 160 160
-1.38657 0.876738 2.28976 8 7 5
-1.39062 0.854166 2.26174 32 33 39
-1.39005 0.852561 2.26018 154 154 154
-1.34798 0.871596 2.30918 133 120 101
-1.66962 0.751724 2.46631 74 66 64
-1.64881 0.86108 2.31613 146 151 155
-1.54343 0.770262 2.28626 158 168 186
-1.53329 0.779834 2.28058 136 143 155
-1.52923 0.790466 2.28227 99 105 126
-1.38923 0.853306 2.27059 10 10 14
-1.38755 0.7813 2.34773 122 126 138
-1.62163 0.810629 2.36384 82 88 102
-1.4951 0.919367 2.5396 8 6 10
-1.57562 0.875225 2.25138 172 183 184
-1.56386 0.909642 2.25959 24 25 29
-1.56411 0.906363 2.2577 30 26 28
-1.53776 0.772188 2.28039 121 128 148
-1.62352 0.782469 2.43914 9 14 20
-1.59909 0.759957 2.33247 190 201 216
-1.57994 0.766323 2.31675 12 18 30
-1.57897 0.758411 2.31258 176 187 202
-1.53632 0.819201 2.27871 2 2 0
-1.42567 0.801399 2.26048 16 16 20
-1.60446 0.729454 2.39057 72 86 102
-1.55147 0.75037 2.28791 120 128 136
-1.52999 0.792086 2.29449 113 126 134
-1.5238 0.839115 2.27497 8 8 8
-1.4982 0.740999 2.29563 118 122 63
-1.46778 0.806196 2.25435 42 82 76
-1.58896 0.823058 2.34549 14 20 28
-1.58896 0.823058 2.34549 14 20 28
-1.60731 0.762555 2.16593 32 34 40
-1.64227 0.898787 2.33544 9 16 20
-1.60306 0.732053 2.38746 194 210 208
-1.60306 0.732053 2.38746 194 210 208
-1.57971 0.723667 2.39531 45 52 59
-1.5785 0.743083 2.34079 128 138 149
-1.6281 0.730664 2.40918 207 218 226
-1.59216 0.777611 2.33776 33 35 42
-1.58262 0.710271 2.38131 148 167 188
-1.59855 0.736733 2.38811 15 26 38
-1.5957 0.761124 2.40186 24 30 46
-1.59653 0.79622 2.32489 8 15 22
-1.59487 0.795322 2.32243 24 32 40
-1.59344 0.795114 2.32128 7 14 24
-1.43347 0.79181 2.32258 28 36 44
