ply
format ascii 1.0
element vertex 1038
property float x
property float y
property float z
property uchar red
property uchar green
property uchar blue
end_header
-0.160144 0.64344 0.45752 0 255 0
0.0433382 0.652759 0.399042 0 255 0
-0.403207 0.517934 0.528191 0 255 0
-0.367657 0.429937 0.439954 0 255 0
-0.229313 0.621354 0.406067 0 255 0
0.115196 0.665134 0.331931 0 255 0
0.188012 0.671497 0.309011 0 255 0
0.0946031 0.647385 0.270633 0 255 0
-0.121345 0.565495 0.450116 0 255 0
-0.623603 0.45634 1.64155 24 19 34
-0.597335 0.37399 1.64048 77 9 6
-0.667938 0.667364 1.75083 122 20 20
-0.595816 0.425556 1.64816 116 12 13
-0.574869 0.39658 1.6475 149 104 42
-0.608107 0.512576 1.71006 122 18 18
-0.577465 0.43658 1.66173 164 144 125
-0.639216 0.589159 1.79629 126 16 13
-0.573086 0.195893 1.88454 92 50 22
-0.554072 0.149227 1.87425 170 114 86
-0.560434 0.201112 1.8919 36 12 6
-0.566914 0.23321 1.91601 86 42 20
-0.55586 0.216652 1.8962 174 116 96
-0.561892 0.237997 1.91984 156 127 111
-0.485948 0.0567808 1.77425 161 114 88
-0.488914 0.0523177 1.78377 161 114 88
-0.552084 0.235199 1.90808 44 12 6
-0.529515 0.187895 1.87073 108 63 40
-0.529515 0.187895 1.87073 108 63 40
-0.504807 0.0826019 1.84561 50 24 16
-0.472933 0.046788 1.77211 162 113 88
-0.540843 0.243582 1.9093 148 96 76
-0.548997 0.261487 1.93059 92 44 22
-0.476027 0.112437 1.79782 28 6 5
-0.512668 0.197036 1.88376 37 9 5
-0.511178 0.22422 1.88169 36 6 3
-0.572224 0.502911 1.99051 208 156 126
-0.474728 0.141457 1.84463 27 8 6
-0.445133 0.0629003 1.78672 51 22 12
-0.442792 0.022475 1.81428 44 26 12
-0.558016 0.458024 1.99814 190 144 120
-0.442994 0.102552 1.79922 50 7 2
-0.441749 0.104618 1.79448 50 7 2
-0.469235 0.157333 1.86663 105 48 28
-0.466819 0.145037 1.87202 198 138 109
-0.431493 0.0925282 1.80191 76 26 11
-0.43154 0.0922874 1.8026 76 26 11
-0.464141 0.218189 1.8573 172 126 102
-0.420935 0.0837587 1.80196 180 120 98
-0.411906 0.0352587 1.79966 40 25 15
-0.412478 0.0508155 1.81146 160 108 80
-0.41297 0.0670458 1.81587 40 8 0
-0.413048 0.0670286 1.816 40 8 0
-0.425448 0.132773 1.84365 128 73 52
-0.407909 0.0986979 1.80783 185 126 106
-0.405472 0.0662207 1.824 163 110 88
-0.404336 0.0326348 1.84628 32 20 6
-0.401552 0.0497053 1.83487 141 98 68
-0.424918 0.244504 1.83537 104 58 32
-0.410956 0.124618 1.88309 46 16 8
-0.41107 0.124602 1.88335 46 16 8
-0.411152 0.123435 1.88409 46 16 8
-0.469393 0.497644 1.97114 88 42 22
-0.412141 0.523633 1.99515 149 101 79
-0.321431 0.32767 1.79033 62 16 6
-0.321431 0.32767 1.79033 62 16 6
-0.314441 0.320781 1.78893 59 17 12
-0.373209 0.519153 2.00018 70 30 20
-0.306956 0.314198 1.79107 128 77 52
-0.30941 0.338447 1.81603 138 92 79
-0.304134 0.322862 1.80752 68 22 8
-0.305062 0.331922 1.81333 57 13 2
-0.300219 0.34679 2.03663 61 20 12
-0.318373 0.543066 2.02865 164 135 127
-0.247967 0.319964 1.81938 175 116 98
-0.297406 0.50321 2.05439 168 118 93
-0.232234 0.305493 1.82136 170 118 101
-0.232344 0.305621 1.82119 170 118 101
-0.227947 0.29378 1.82951 74 29 10
-0.171991 0.0213497 1.91779 53 24 11
-0.194453 0.140868 1.96861 100 68 28
-0.175456 0.0570897 1.91687 174 112 84
-0.161323 0.0850299 1.88548 100 26 8
-0.168853 0.102037 1.96423 154 133 92
-0.193799 0.297575 1.87055 72 18 4
-0.145074 0.0307026 1.9015 180 122 96
-0.158504 0.109753 1.96765 77 28 16
-0.230879 0.509676 2.0491 116 64 33
-0.167642 0.220732 1.89554 138 86 63
-0.131087 0.0200046 1.88431 90 58 42
-0.142008 0.129666 1.93986 202 146 117
-0.117759 0.0156194 1.88013 114 79 64
-0.209643 0.518297 2.04258 114 60 30
-0.0915968 0.0325509 1.87609 108 68 48
-0.0939093 0.0448523 1.8798 36 14 9
-0.083386 0.0505905 1.88526 124 81 60
-0.0703061 0.152131 1.9434 44 14 10
-0.04944 0.172388 1.94587 151 98 81
-0.0548448 0.205697 1.96338 176 126 105
-0.0548742 0.204873 1.96533 176 126 105
-0.03614 0.147617 1.94663 22 10 4
-0.0221032 0.104078 1.96841 146 141 90
-0.112059 0.605921 1.83838 110 82 72
-0.105729 0.601451 1.84576 162 134 122
-0.0923324 0.591831 1.83932 143 119 110
-0.0413425 0.69931 1.85474 222 197 190
-0.0215297 0.560111 1.74162 46 4 1
-0.024655 0.622296 1.75732 198 172 162
-0.0244217 0.622357 1.75124 198 172 162
-0.000492176 0.638948 1.74914 86 77 74
0.00801841 0.626796 1.75088 146 120 113
0.0166072 0.603261 1.71735 88 82 68
0.0475544 0.609161 1.71942 90 87 70
0.0832304 0.698321 1.80721 158 28 28
0.0879258 0.644885 1.76157 158 127 124
0.376287 0.479796 2.07199 116 80 50
0.382961 0.454286 2.07199 114 76 46
0.364593 0.5488 2.04781 108 83 68
0.375109 0.492178 2.02378 162 135 120
0.398888 0.452737 2.05255 148 94 64
0.368557 0.608123 2.06108 125 108 92
0.369583 0.550974 2.0209 170 140 126
0.362427 0.635994 2.05742 87 52 32
0.38177 0.522609 2.03273 170 144 130
0.367034 0.620279 2.0535 126 107 92
0.376303 0.544618 1.98717 174 142 124
0.415106 0.418855 1.99259 157 128 110
0.423688 0.462177 2.03233 102 63 34
0.383411 0.578435 1.99352 141 20 20
0.390346 0.545393 1.98236 158 72 46
0.385266 0.636516 2.02727 172 148 136
0.385822 0.586362 1.98607 174 126 122
0.418561 0.324668 1.89517 56 22 4
0.418637 0.324632 1.89545 56 22 4
0.455441 0.0460389 1.80811 106 68 30
0.384669 0.614298 1.99023 90 37 40
0.431823 0.380621 1.95839 107 66 40
0.43769 0.44048 2.00518 127 99 81
0.395285 0.583656 1.98111 178 150 138
0.389889 0.610133 1.97853 96 68 68
0.42514 0.33646 1.89041 58 26 12
0.425542 0.335804 1.89205 58 26 12
0.436923 0.439708 1.98253 32 14 6
0.433432 0.195474 1.80496 160 144 102
0.436572 0.426159 1.96885 164 133 111
0.436491 0.42615 1.96865 164 133 111
0.400982 0.599692 1.97141 104 76 75
0.445143 0.440702 1.98026 110 92 74
0.405229 0.620476 1.97808 116 90 88
0.405448 0.687062 2.00666 106 60 41
0.463806 0.372206 1.9347 43 10 2
0.444453 0.184909 1.75089 85 77 67
0.50964 0.225454 1.94549 159 151 104
0.512058 0.234362 1.95662 111 64 26
0.482004 0.354745 1.94061 71 36 19
0.489759 0.354795 1.94628 120 80 56
0.444762 0.218782 1.72727 157 132 119
0.439757 0.615581 1.92352 119 78 64
0.453128 0.166605 1.68028 108 65 30
0.539873 0.260818 1.95233 162 139 100
0.456831 0.186887 1.67941 148 123 110
0.471082 0.644988 1.99041 201 178 172
0.495187 0.533561 1.9587 100 78 64
0.466596 0.245255 1.70018 157 127 116
0.493406 0.508 1.91838 18 14 10
0.494288 0.523409 1.92702 123 100 89
0.501351 0.496098 1.91529 170 118 96
0.465257 0.691781 1.94435 172 145 140
0.472456 0.661644 1.93471 184 154 147
0.469954 0.213741 1.66147 154 122 108
0.500536 0.514115 1.90424 163 135 120
0.507999 0.51152 1.90771 157 129 115
0.508436 0.500145 1.9011 174 135 114
0.478626 0.249372 1.68879 35 10 8
0.515233 0.504097 1.90078 163 130 107
0.48393 0.221705 1.6559 103 52 26
0.48352 0.222189 1.65513 103 52 26
0.490011 0.706821 1.93642 174 147 140
0.508821 0.165369 1.67038 125 7 7
0.490232 0.245311 1.66733 139 18 16
0.490207 0.245333 1.66743 139 18 16
0.508103 0.583197 1.89291 164 133 120
0.498546 0.691677 1.92691 192 148 93
0.488984 0.605464 1.85875 102 54 30
0.568471 0.2941 1.85702 88 78 61
0.539474 0.543114 1.92325 104 72 52
0.493195 0.218547 1.64635 164 140 132
0.529298 0.468714 1.85501 176 138 114
0.528946 0.458996 1.83954 58 14 2
0.511117 0.68045 1.90894 88 108 98
0.52234 0.596495 1.88246 101 56 26
0.537483 0.463099 1.83289 182 136 116
0.549944 0.404545 1.82719 144 116 99
0.552611 0.422131 1.83255 14 13 14
0.552111 0.422428 1.83159 14 13 14
0.553875 0.521419 1.87493 51 32 20
0.554419 0.529161 1.87617 176 154 142
0.533297 0.64614 1.89285 134 90 67
0.558586 0.479824 1.85405 183 156 140
0.559481 0.445968 1.82834 92 65 62
0.527821 0.243528 1.65227 172 144 136
0.56451 0.385998 1.7886 170 71 38
0.566974 0.363359 1.78031 184 94 69
0.573738 0.415922 1.81663 16 13 15
0.551342 0.640298 1.8845 116 71 51
0.556106 0.635495 1.88688 174 140 126
0.569216 0.456215 1.82186 46 16 10
0.571522 0.378739 1.77705 126 28 4
0.612994 0.56495 1.94923 160 138 122
0.574261 0.477058 1.82585 159 122 102
0.601737 0.543445 1.90853 112 70 50
0.637983 0.041633 1.71672 156 147 96
0.580665 0.477742 1.82456 100 66 60
0.640283 0.0367931 1.70825 150 144 96
0.596156 0.403009 1.80672 26 14 12
0.589979 0.453634 1.82121 98 73 75
0.60467 0.402605 1.80967 126 77 58
0.629549 0.51533 1.90028 29 17 12
0.651188 0.0566556 1.69816 220 170 146
0.640944 0.0819362 1.68903 129 16 14
0.637627 0.558207 1.92015 98 49 28
0.607885 0.721928 1.94253 179 154 144
0.61361 0.46388 1.82274 60 26 22
0.607176 0.713777 1.93176 46 35 32
0.606565 0.660361 1.89809 138 107 92
0.665412 0.0577903 1.70169 178 127 102
0.646753 0.094722 1.68314 120 72 42
0.61358 0.669887 1.89655 144 110 94
0.612809 0.669742 1.89496 144 110 94
0.618133 0.69178 1.9125 182 155 139
0.671409 0.092476 1.69517 18 12 12
0.626895 0.656156 1.89184 190 156 138
0.644696 0.469805 1.83234 78 34 12
0.650931 0.449335 1.83144 183 154 137
0.631222 0.665661 1.89772 192 148 129
0.737679 0.305953 1.90808 18 12 4
0.637066 0.659723 1.89685 155 78 54
0.759028 0.341104 1.96144 89 71 61
0.656672 0.6619 1.91401 164 144 143
0.668976 0.644111 1.92349 177 159 152
0.664281 0.412406 1.79524 190 141 116
0.701532 0.6597 1.94821 140 84 60
0.681597 0.434943 1.80915 130 97 74
0.687289 0.678049 1.92924 110 74 56
0.688077 0.422283 1.79659 71 56 42
0.699058 0.394986 1.79449 98 64 32
0.70021 0.440052 1.81286 65 37 18
0.776682 0.585649 1.99781 154 142 120
0.709104 0.431352 1.81326 62 41 19
0.656134 0.302579 1.64077 134 28 22
-0.717873 0.389186 1.59675 119 20 14
-0.69397 0.447101 1.58188 96 4 0
-0.687903 0.518764 1.64432 28 19 30
-0.600745 0.356666 1.55526 43 12 11
-0.639772 0.449799 1.62259 125 119 124
-0.646768 0.470447 1.63566 22 18 32
-0.633144 0.444262 1.61997 18 14 28
-0.650996 0.509249 1.66692 22 18 33
-0.679963 0.625195 1.77194 63 1 2
-0.524402 0.380525 1.69198 143 9 16
-0.507978 0.0916268 1.78722 170 122 102
-0.456346 0.123373 1.81712 176 111 88
-0.398525 0.0994169 1.81588 94 30 13
-0.409855 0.301173 1.81021 157 106 80
-0.341132 0.307593 1.7886 81 31 20
-0.328349 0.317957 1.78514 190 132 112
-0.319166 0.285656 1.78971 128 76 51
-0.23263 0.315148 1.82668 82 30 14
-0.232599 0.315026 1.82716 82 30 14
-0.119508 0.0376655 1.88018 172 113 92
-0.10783 -0.0166633 1.89082 50 35 10
-0.120328 0.079482 1.9182 178 104 81
-0.120328 0.079482 1.9182 178 104 81
-0.0874564 -0.00978058 1.8856 52 34 12
-0.125568 0.285017 1.96129 91 46 29
-0.0812454 0.08317 1.8939 34 14 8
-0.0759076 0.070233 1.8878 122 80 60
-0.0493994 0.171893 1.947 148 100 85
-0.0236037 0.118425 1.95233 81 58 26
-0.021649 0.1463 1.9577 143 123 96
-0.024851 0.703114 1.85618 181 168 170
-0.024851 0.703114 1.85618 181 168 170
0.0572318 0.657616 1.74821 138 122 117
0.0923409 0.644707 1.75749 132 27 30
0.389717 0.610078 1.97746 84 58 56
0.400924 0.599748 1.97136 91 65 64
0.45376 0.617723 1.93151 144 109 96
0.460575 0.246969 1.75228 165 153 111
0.458934 0.701361 1.94592 160 140 132
0.481108 0.711237 1.93569 168 145 140
0.490553 0.664721 1.91738 84 92 78
0.52933 0.458862 1.84083 56 16 5
0.514413 0.690479 1.91187 119 46 38
0.567009 0.688276 1.90973 138 60 48
0.652771 0.0649279 1.69579 123 70 36
0.668064 0.0599009 1.7098 122 73 48
-0.63661 0.258564 1.50549 83 86 112
-0.629845 0.257671 1.52068 20 26 68
-0.630489 0.257154 1.52191 20 26 68
-0.644762 0.446541 1.61876 26 12 26
-0.604569 0.312197 1.57059 121 16 14
-0.648341 0.466932 1.63125 108 101 114
-0.64298 0.463198 1.63037 23 18 29
-0.640043 0.455169 1.6281 21 17 29
-0.635215 0.448697 1.62422 20 16 30
-0.630406 0.462809 1.64537 119 114 122
-0.529792 0.213404 1.88633 106 62 46
-0.412266 0.276949 1.81985 86 43 22
-0.341011 0.307618 1.78816 80 29 20
-0.301725 0.276336 1.7737 166 119 92
-0.15996 0.0581184 1.88997 169 106 83
-0.096372 0.586039 1.84304 98 74 64
-0.0167521 0.202308 1.9427 77 50 22
0.0676537 0.655361 1.74799 142 128 123
0.382518 0.579276 1.98085 128 36 30
0.431827 0.46945 2.02671 173 133 116
0.442578 0.317495 1.88979 172 144 126
0.451952 0.321585 1.89356 146 117 101
0.442286 0.629096 1.98397 198 175 168
0.454168 0.684672 1.94827 162 132 126
0.471241 0.231498 1.69988 117 11 9
0.475859 0.221161 1.65845 108 62 44
0.542513 0.617626 1.87817 88 44 22
0.585319 0.549181 1.90288 168 142 125
0.65435 0.0625241 1.69942 118 67 40
-0.639125 0.558334 1.78434 115 24 17
-0.566105 0.186343 1.87941 209 154 122
-0.505233 0.0821057 1.84724 55 26 16
-0.472113 0.0479797 1.76947 156 109 90
-0.567271 0.477422 1.99155 176 124 100
-0.396732 0.253781 1.8632 92 52 24
-0.414132 0.471732 1.97621 157 107 88
-0.414872 0.497962 1.9665 180 123 94
-0.414758 0.511701 1.97511 75 28 12
-0.412169 0.523605 1.99557 146 98 76
-0.17951 0.0014007 1.93817 148 143 92
-0.141374 0.218051 1.88946 174 130 108
-0.12594 0.281213 1.97525 94 48 31
0.0285491 0.506576 1.75813 164 150 128
-0.000544464 0.720079 1.86074 52 19 18
0.472423 0.63634 1.88727 182 159 151
0.534779 0.550632 1.9223 161 124 104
0.658127 0.544347 1.89382 35 15 4
-0.742952 0.579239 1.73598 149 28 20
-0.614189 0.276672 1.53967 162 146 124
-0.691809 0.535095 1.66991 58 3 2
-0.694088 0.543894 1.68014 143 87 30
-0.606452 0.352225 1.55052 157 142 143
-0.606452 0.352225 1.55052 157 142 143
-0.684452 0.547532 1.73499 156 133 117
-0.646689 0.468315 1.67337 21 16 36
-0.62691 0.464919 1.66114 100 92 102
-0.569622 0.175846 1.87638 97 55 28
-0.566663 0.164149 1.87895 164 140 118
-0.556984 0.458003 1.99594 193 145 122
-0.412123 0.0924519 1.80146 108 52 29
-0.38664 0.434519 1.98348 158 116 103
-0.327971 0.318284 1.78354 186 130 111
-0.328648 0.481726 2.03303 73 29 17
-0.193985 0.140719 1.96771 100 68 30
-0.189431 0.316278 1.90811 114 66 38
-0.178087 0.270813 1.86166 108 65 40
-0.182504 0.299882 1.8788 146 100 77
-0.0761681 -0.00682457 1.88233 58 44 9
-0.13707 0.58121 1.87388 160 132 121
-0.017622 0.638327 1.74778 184 164 160
0.452956 0.535347 1.95478 146 122 108
0.460205 0.686728 1.94721 54 19 16
0.513045 0.506601 1.91057 46 22 9
0.51207 0.708505 1.92524 122 73 66
0.55445 0.376707 1.80056 160 114 100
0.545486 0.635823 1.88796 103 56 36
0.633475 0.473951 1.83639 73 28 16
0.566988 0.235481 1.59364 239 224 212
0.636389 0.669575 1.90106 144 70 46
0.679465 0.424807 1.80254 178 150 129
-0.692043 0.626172 1.79951 73 4 5
-0.46333 0.0457666 1.76662 48 20 7
-0.541742 0.263655 1.93795 72 32 18
-0.256414 0.331995 1.83027 177 120 101
-0.131898 -0.0617725 1.99899 58 41 11
-0.0150531 0.0359147 1.96043 68 59 20
-0.0132462 0.190132 1.94405 66 36 12
-0.0230394 0.709882 1.85654 57 31 28
0.0392386 0.643152 1.76031 174 134 122
0.157646 0.645509 1.86872 84 70 62
0.390394 0.433735 2.08675 116 79 48
0.387973 0.592983 1.98806 93 66 64
0.461709 0.321722 1.9038 120 84 62
0.505013 0.505154 1.90406 40 14 4
0.474127 0.695849 1.93988 30 13 12
0.476984 0.667638 1.92414 164 102 86
0.490106 0.698538 1.93778 116 64 58
0.568175 0.390728 1.78279 168 76 46
0.639597 0.572167 1.93151 186 166 152
0.610372 0.720957 1.93873 171 150 140
0.615179 0.645348 1.88761 131 97 84
0.644002 0.67935 1.90902 174 122 105
-0.737601 0.391065 1.61102 162 140 118
-0.689296 0.298375 1.54375 164 143 123
-0.677546 0.342892 1.53099 188 154 148
-0.674356 0.318127 1.5313 151 18 21
-0.703599 0.380212 1.57989 166 140 122
-0.657876 0.278091 1.53675 160 144 124
-0.664778 0.454963 1.6221 108 100 104
-0.654977 0.446668 1.61561 117 104 107
-0.674198 0.541445 1.74622 118 58 24
-0.657222 0.553363 1.75567 152 100 39
-0.629958 0.528279 1.71484 143 90 34
-0.621548 0.524986 1.75228 162 137 119
0.0348587 0.533488 1.76122 134 82 62
0.0348587 0.533488 1.76122 134 82 62
0.080668 0.63793 1.76182 160 118 115
0.0936219 0.70792 1.80678 158 31 30
0.0936219 0.70792 1.80678 158 31 30
0.453649 0.327616 1.90439 107 72 50
0.506272 0.698516 1.91616 194 144 110
-0.417267 0.257725 1.82962 92 47 22
-0.256727 0.331814 1.82977 176 124 106
-0.250803 0.32764 1.8262 71 20 9
-0.243684 0.309135 1.82005 74 25 16
-0.0828787 0.0923434 1.89747 32 8 2
0.017695 0.609318 1.72018 47 32 18
0.02629 0.61314 1.72651 88 84 70
0.0244876 0.641832 1.75362 149 23 20
0.0663912 0.655057 1.74556 140 126 120
0.444902 0.32143 1.89039 72 49 36
0.475415 0.657516 1.92096 126 84 68
0.501378 0.644245 1.90122 172 150 144
0.500163 0.708599 1.93054 28 18 18
0.500165 0.708562 1.93074 28 18 18
-0.331548 0.276523 1.784 222 171 131
-0.0898216 0.116418 1.92764 28 7 3
-0.0430334 0.232309 1.9606 29 10 6
-0.0310041 0.237686 1.96375 160 136 118
-0.0265396 0.235329 1.9579 92 52 27
0.0214248 0.60403 1.81969 116 50 42
0.374151 0.551179 1.98391 140 62 38
0.412207 0.571837 1.97738 172 144 136
0.412295 0.571662 1.9776 172 144 136
0.473183 0.679361 1.92912 108 34 32
0.47379 0.69594 1.93904 30 14 10
-0.633579 0.526711 1.70707 114 16 12
-0.646618 0.558671 1.7685 148 94 44
-0.62338 0.522535 1.75639 162 137 122
-0.642579 0.57898 1.79983 115 19 19
-0.492213 0.0718685 1.77015 169 122 95
-0.508822 0.107248 1.80347 122 80 58
-0.416294 0.240232 1.84903 100 54 30
-0.400356 0.334485 1.82656 90 38 16
-0.386444 0.149159 1.90322 92 56 28
-0.331144 0.27683 1.78237 220 168 124
-0.312139 0.330408 1.79585 164 114 98
-0.213975 0.298137 1.8521 95 46 30
-0.261659 0.447739 2.04661 188 140 116
-0.193709 0.298243 1.86698 70 18 2
-0.18791 0.281156 1.86338 160 108 81
-0.204642 0.402331 2.07179 175 122 101
-0.0913663 0.139162 1.93845 124 72 53
-0.0966086 0.586336 1.84131 88 65 54
-0.0236503 0.710751 1.85802 60 32 32
0.063972 0.664538 1.74965 32 16 8
0.427836 0.372417 1.95468 112 79 54
0.461668 0.321741 1.90212 122 85 67
0.479726 0.361206 1.94348 62 30 16
0.441357 0.622839 1.92143 119 82 67
0.474176 0.695953 1.94028 28 14 14
0.584528 0.0432475 1.73116 156 152 96
0.508155 0.690528 1.91244 196 142 98
0.566242 0.330979 1.77424 182 136 125
0.565035 0.456819 1.82474 168 123 110
0.54268 0.644007 1.88931 168 130 116
0.545318 0.635906 1.88744 105 60 34
0.574415 0.415923 1.81815 17 14 17
0.567678 0.466932 1.82599 134 92 79
0.573973 0.465939 1.82409 26 10 4
0.627694 0.0787535 1.70149 132 6 8
0.651991 0.0369773 1.70372 104 50 23
0.607579 0.728477 1.95336 131 100 88
0.636498 0.478736 1.83581 194 163 143
0.626169 0.740409 1.96494 160 130 118
0.630198 0.675849 1.90421 188 162 146
0.764102 0.295915 1.90336 152 144 98
0.697959 0.436107 1.81626 172 148 128
0.679878 0.3181 1.66225 114 98 86
0.679301 0.318353 1.66131 114 98 86
0.794935 0.54452 2.03364 154 142 120
-0.626495 0.481956 1.63891 96 84 90
-0.612196 0.480211 1.61292 24 14 29
-0.703367 0.591557 1.7697 96 20 14
-0.60303 0.357403 1.63121 166 146 128
-0.609204 0.361074 1.65142 84 24 10
-0.652927 0.556302 1.74434 155 98 35
-0.565713 0.362331 1.67564 162 143 118
-0.538425 0.380502 1.69421 157 107 45
-0.59264 0.386878 1.90261 157 139 118
-0.605905 0.479618 2.01921 104 63 28
-0.435154 0.0915809 1.79465 152 96 80
-0.423765 0.0419076 1.81068 136 88 63
-0.476425 0.373242 1.85654 168 122 98
-0.466253 0.356874 1.91156 192 148 128
-0.407018 0.0200014 1.90181 157 145 98
-0.400699 0.263168 1.81717 126 81 56
-0.445953 0.330669 1.94806 169 120 97
-0.39307 0.103793 1.87637 150 140 92
-0.39507 0.237166 1.8585 82 38 20
-0.387099 0.259334 1.83543 86 42 20
-0.387016 0.329887 1.82023 170 108 88
-0.380341 0.310026 1.8388 175 113 90
-0.351074 0.169728 1.99087 82 38 15
-0.351074 0.169728 1.99087 82 38 15
-0.322799 0.33719 1.83483 150 103 93
-0.30526 0.331685 1.814 56 14 4
-0.319079 0.147791 2.06402 90 57 23
-0.262863 0.256968 1.86567 152 104 82
-0.306764 0.305451 2.0863 150 132 108
-0.260242 0.132178 2.09193 94 58 26
-0.216441 0.290034 1.84615 77 30 12
-0.22068 0.270155 1.87527 126 79 55
-0.213844 0.206675 1.95178 167 117 85
-0.203467 0.27568 1.8695 72 24 6
-0.201068 0.320618 1.89465 80 32 16
-0.178105 0.213096 1.9078 132 82 54
-0.152361 0.0968464 1.88604 194 134 114
-0.223518 0.49691 2.02739 132 78 56
-0.12839 0.572147 1.87621 159 126 114
-0.0623614 0.135452 1.93861 134 86 66
-0.0623614 0.135452 1.93861 134 86 66
-0.0704957 0.259509 1.98494 26 8 1
-0.102704 0.575291 1.86485 156 128 118
-0.0891213 0.586938 1.84834 93 68 58
-0.0690883 0.614108 1.7753 157 128 117
-0.0368007 0.498181 1.8504 136 30 20
-0.0142544 0.542127 1.70564 20 12 10
0.0113265 0.422223 2.24465 91 69 32
0.00100561 0.626817 1.77272 128 116 115
0.0311111 0.627098 1.7426 44 31 16
0.0313551 0.627391 1.73394 44 31 16
0.0524388 0.615949 1.72232 56 40 28
0.0638823 0.650504 1.75264 80 59 54
0.0816612 0.644232 1.77106 132 115 114
0.0789374 0.669284 1.76363 175 160 158
0.0787562 0.669702 1.76572 175 160 158
0.244787 0.010105 2.81473 96 94 55
0.131962 0.594835 1.79995 153 137 118
0.122618 0.654526 1.79761 146 128 116
0.141992 0.600195 1.7538 152 136 118
0.217009 0.437029 2.03364 156 145 123
0.164974 0.639402 1.82926 101 80 71
0.175222 0.641319 1.83191 166 150 144
0.37363 0.490202 2.07392 116 82 54
0.390578 0.434052 2.08471 119 74 48
0.38474 0.470322 2.05735 102 70 35
0.401386 0.36782 2.02904 155 146 125
0.370384 0.592257 2.00828 109 52 53
0.411148 0.438459 2.04181 22 14 10
0.407798 0.419598 1.99787 43 14 6
0.438794 0.108716 1.79761 98 70 42
0.418889 0.436943 2.02225 22 11 8
0.445116 0.0912938 1.786 100 72 32
0.436802 0.165255 1.81711 102 81 46
0.431983 0.358213 1.98677 158 140 118
0.438133 0.178106 1.81073 166 139 116
0.433042 0.35413 1.95867 72 42 18
0.428511 0.448774 2.03338 144 114 86
0.438958 0.188649 1.80701 98 70 34
0.467834 0.0510606 1.80159 154 138 118
0.438439 0.178985 1.78348 160 134 116
0.443511 0.364012 1.97187 62 20 6
0.433896 0.321459 1.88238 198 166 148
0.441789 0.329558 1.88683 156 128 115
0.450213 0.440532 1.99888 84 66 48
0.450213 0.440532 1.99888 84 66 48
0.444542 0.187963 1.72794 90 85 70
0.446097 0.196937 1.74354 84 68 59
0.453794 0.327107 1.90183 106 69 50
0.448393 0.231466 1.74927 102 64 26
0.481084 0.270474 1.92536 145 140 91
0.468466 0.323599 1.9031 164 128 108
0.473898 0.353176 1.92648 160 122 102
0.480009 0.309188 1.90654 100 32 11
0.49344 0.267439 1.92282 97 47 19
0.515262 0.404656 2.10404 120 106 74
0.499327 0.107245 1.75937 160 140 118
0.500062 0.336042 1.9441 9 6 4
0.524201 0.374367 2.07431 157 148 126
0.472656 0.5296 1.95029 145 118 106
0.541464 0.264834 1.94117 152 150 100
0.480905 0.228008 1.67815 158 130 120
0.547408 0.262662 1.95644 152 150 99
0.462662 0.600849 1.90701 114 65 43
0.47174 0.611202 1.91723 198 174 170
0.510697 0.163958 1.67756 124 8 8
0.469332 0.699921 1.94422 178 150 144
0.499945 0.502206 1.88841 69 28 12
0.560023 0.304302 1.90233 152 146 100
0.559832 0.315209 1.89788 76 76 47
0.558302 0.334761 1.89344 88 76 58
0.557025 0.335702 1.88956 88 76 58
0.563111 0.298047 1.87662 77 85 64
0.528615 0.556623 1.94299 108 63 36
0.569063 0.305111 1.85365 156 130 116
0.569974 0.304436 1.85626 156 130 116
0.537581 0.425335 1.83019 164 134 119
0.539426 0.432812 1.83993 123 86 68
0.55832 0.324297 1.8185 90 88 70
0.544975 0.370201 1.80681 163 132 122
0.514565 0.610079 1.87177 178 130 106
0.542848 0.514052 1.87863 182 156 136
0.542848 0.514052 1.87863 182 156 136
0.539901 0.466623 1.8272 67 24 9
0.580167 0.309334 1.83626 166 136 126
0.52609 0.301296 1.64184 162 136 126
0.557813 0.364357 1.77785 142 45 22
0.529534 0.629742 1.88267 116 71 46
0.562189 0.355842 1.77753 127 17 7
0.550562 0.467507 1.82078 62 25 12
0.539876 0.281627 1.6499 110 85 72
0.559913 0.562451 1.88306 174 144 130
0.578296 0.343833 1.78069 121 13 11
0.541875 0.629133 1.87283 176 130 110
0.576397 0.415675 1.82151 19 17 21
0.632869 0.0463918 1.71893 152 146 95
0.631396 0.0551657 1.71094 98 60 22
0.560073 0.275611 1.63977 170 144 137
0.602985 0.331725 1.80317 156 131 118
0.581879 0.386698 1.77615 172 88 60
0.599783 0.422834 1.80038 38 16 7
0.600849 0.484339 1.84315 191 125 96
0.579706 0.294429 1.64794 157 137 130
0.668431 0.0259681 1.69763 154 100 72
0.623924 0.427661 1.82314 74 24 9
0.647541 0.506721 1.90712 39 14 4
0.651584 0.516812 1.9093 36 15 6
0.641671 0.492281 1.85593 186 158 140
0.683347 0.0868798 1.69095 173 140 117
0.619746 0.325738 1.66354 118 78 58
0.685219 0.304103 1.80668 22 10 2
0.659874 0.544333 1.89757 34 12 11
0.615583 0.239678 1.588 122 79 56
0.637985 0.659459 1.89965 157 75 54
0.68538 0.128802 1.67261 26 23 19
0.750082 0.339765 1.93849 92 76 75
0.7653 0.3183 1.93923 151 146 98
0.691866 0.441394 1.82184 173 136 118
0.691397 0.701465 1.97326 38 22 10
0.691397 0.701465 1.97326 38 22 10
0.637333 0.253966 1.57231 153 108 80
0.760945 0.461319 1.98976 125 84 64
0.698817 0.44067 1.81018 56 30 10
0.757959 0.56252 1.99294 146 97 68
0.664835 0.243728 1.58298 92 70 52
0.742007 0.620567 1.96365 112 80 52
0.691464 0.320709 1.6659 165 146 138
0.689867 0.284281 1.61507 121 78 55
0.697206 0.290147 1.63167 154 136 125
0.704037 0.307027 1.64853 158 141 124
0.721022 0.326838 1.68604 102 66 42
0.707084 0.279009 1.61838 112 67 42
0.709814 0.289775 1.62925 155 136 129
0.719581 0.293275 1.64459 115 102 88
0.712838 0.278879 1.62133 166 122 102
0.734085 0.314799 1.67814 118 88 65
0.72102 0.277754 1.62298 100 56 31
0.730746 0.288649 1.64359 160 137 131
0.756537 0.301592 1.6764 96 30 22
0.848897 0.136974 1.76829 162 137 115
0.747513 0.269629 1.62727 152 136 124
0.862671 0.134469 1.77341 99 64 26
0.796994 0.257596 1.68047 108 100 68
0.857442 0.171773 1.74135 98 62 28
-0.65213 0.455657 2.06549 157 132 115
-0.62997 0.462851 1.64576 128 120 126
-0.620524 0.460508 1.63323 18 12 24
-0.649966 0.544516 1.74509 147 96 34
-0.565414 0.362828 1.67444 166 144 113
-0.637614 0.566485 1.79836 152 130 114
-0.534458 0.386654 1.69497 154 106 48
-0.506077 0.0782997 1.78226 35 12 9
-0.506077 0.0782997 1.78226 35 12 9
-0.56615 0.47991 1.98977 181 131 108
-0.431327 0.0557515 1.77744 37 16 7
-0.505864 0.280455 1.91241 67 28 12
-0.401921 0.0489877 1.83601 143 96 74
-0.398097 0.155832 1.8922 94 50 24
-0.365717 0.137769 1.96031 90 51 20
-0.299816 0.0192756 1.97674 150 146 90
-0.250928 0.327738 1.8259 65 13 3
-0.191974 0.289882 1.87371 154 104 78
-0.178105 0.213096 1.9078 129 80 50
-0.205513 0.489493 2.08729 201 156 130
-0.136576 0.283158 1.9735 101 59 43
-0.136576 0.283158 1.9735 101 59 43
-0.0897336 0.116363 1.92636 26 8 4
-0.104143 0.585706 1.84585 89 63 52
0.0709328 0.697717 1.79359 66 25 18
0.12739 0.600826 1.79067 154 136 121
0.144064 0.602581 1.80006 151 135 118
0.140558 0.637083 1.83736 113 102 96
0.140558 0.637083 1.83736 113 102 96
0.151819 0.630326 1.99106 80 64 54
0.161992 0.651082 1.84423 146 130 117
0.164642 0.639588 1.82434 100 80 70
0.431566 0.376131 1.95382 160 120 94
0.454499 0.326332 1.9031 102 65 46
0.454219 0.307973 1.8819 156 125 95
0.472661 0.334978 1.91438 124 70 46
0.478733 0.336673 1.91189 156 110 90
0.498043 0.716982 1.93572 178 157 151
0.543263 0.521451 1.86706 185 160 144
0.540117 0.281292 1.65123 116 91 80
0.551027 0.243438 1.59625 166 140 135
0.587806 0.381772 1.77153 82 16 1
0.572111 0.249995 1.60383 178 154 146
0.61871 0.192189 1.63346 12 12 12
0.599463 0.31662 1.66566 166 140 130
0.631343 0.430296 1.81726 167 100 70
0.630378 0.694231 1.92668 194 165 144
0.664183 0.688019 1.92041 166 144 132
0.726431 0.0921546 1.70438 151 148 94
0.685572 0.705427 1.96819 188 163 148
0.698656 0.279158 1.60983 156 116 93
0.733993 0.314893 1.67805 122 90 69
-0.665889 0.354078 2.15142 101 72 42
-0.525122 0.282784 1.96219 166 138 110
-0.483933 0.271081 1.86277 138 94 76
-0.414807 0.251406 1.84853 96 53 28
-0.0337226 0.138342 2.51172 157 146 123
0.0186399 0.602387 1.8867 88 82 64
0.169285 0.656817 1.85656 106 86 77
0.554436 0.521474 1.87684 42 28 20
0.572509 0.378171 1.78033 114 20 0
0.662148 0.430185 1.80719 172 138 118
0.68992 0.437719 1.81471 132 98 80
-0.0510528 0.712545 1.86651 67 30 23
-0.402231 0.341467 1.83259 106 59 35
0.448442 0.704408 2.02923 196 170 160
-0.643888 0.441203 1.61514 118 108 114
-0.648288 0.466931 1.6313 120 112 122
-0.644931 0.463634 1.63333 29 24 34
-0.638594 0.459107 1.629 22 20 38
-0.562773 0.200574 1.89697 37 8 5
-0.561432 0.246666 1.92337 82 46 26
-0.507105 0.067082 1.78244 48 22 10
-0.508866 0.108448 1.79979 122 82 66
-0.218672 0.532124 2.03195 186 133 106
-0.0699649 0.239469 1.95619 174 122 101
-0.0103955 0.736163 1.83956 72 47 45
-0.00583497 0.641861 1.75052 138 126 124
0.375919 0.458149 2.09121 148 136 114
0.395375 0.58358 1.98115 154 126 118
0.485578 0.368423 1.9472 84 66 50
0.537064 0.274184 1.94541 162 154 113
0.525398 0.466491 1.85131 154 113 93
0.547619 0.645413 1.9026 125 86 68
0.567031 0.688353 1.90989 130 60 56
0.66721 0.051414 1.68754 101 52 24
0.69005 0.0386385 1.68414 127 90 59
-0.191549 0.48463 2.03439 182 132 110
-0.72775 0.60544 1.74518 175 112 42
-0.605702 0.353366 1.54899 162 144 144
-0.436264 0.524462 1.99146 65 24 16
-0.0190066 0.706343 1.88825 120 88 86
0.374215 0.621695 2.03521 29 16 4
0.405925 0.687286 2.00782 90 48 28
0.50894 0.715501 1.92652 173 147 139
0.54652 0.652378 1.88771 140 95 76
0.628645 0.467475 1.82991 158 110 90
0.373966 0.621552 2.03417 36 18 5
0.44785 0.371811 1.93446 42 9 1
0.476403 0.667602 1.92175 148 96 82
0.649207 0.0639221 1.7025 198 148 124
0.351926 0.511582 1.51207 124 92 72
0.668814 0.0498547 1.69092 98 50 21
0.315345 0.546892 1.45729 58 32 16
0.657321 0.539664 1.88159 182 152 132
-0.652518 0.448221 1.61027 116 110 112
-0.619038 0.501007 1.68938 44 18 24
0.463871 0.372131 1.93481 50 12 2
-0.657285 0.327434 1.53354 178 60 62
-0.656591 0.32798 1.53018 178 60 62
-0.601828 0.364073 1.56107 108 24 24
-0.562383 0.200485 1.89636 37 9 5
-0.0461289 0.714754 1.85887 64 29 22
-0.248964 0.502317 0.833738 130 50 37
-0.629679 0.451067 1.63197 22 19 36
-0.559243 0.121317 1.87544 144 128 102
-0.559777 0.12039 1.87823 144 128 102
-0.554528 0.148989 1.87517 174 120 94
-0.420864 0.0837632 1.80146 182 125 106
-0.0224103 0.714526 1.852 134 108 106
-0.0222531 0.714439 1.85181 134 108 106
0.450599 0.44537 1.99292 38 21 6
0.54679 0.525674 1.87363 54 35 26
0.639575 0.4242 1.81213 180 112 86
-0.640673 0.478791 1.65252 28 18 32
-0.633019 0.470449 1.64985 24 18 34
-0.623287 0.445515 1.63076 24 16 26
-0.568825 0.162194 1.88411 164 143 122
-0.302891 0.141176 2.11054 83 44 20
-0.0446931 0.70642 1.85655 82 52 46
0.452464 0.321532 1.8945 141 111 95
0.58609 0.583063 1.86245 123 90 73
0.726606 0.183449 1.75716 106 74 50
0.0842225 0.698447 1.8077 146 26 26
0.504441 0.497938 1.90839 61 18 4
0.607126 0.590228 1.90609 104 71 54
-0.630451 0.462635 1.64671 124 118 128
-0.469493 0.157782 1.86495 111 52 26
-0.451979 0.109895 1.81182 198 136 116
-0.0482127 0.72501 1.86557 74 38 32
0.499824 0.498888 1.90814 130 90 71
0.494639 0.617917 1.91567 132 83 62
-0.651079 0.281362 1.52492 160 144 126
-0.627685 0.470358 1.65758 112 102 110
-0.619524 0.50104 1.69001 43 18 18
-0.492146 0.0718932 1.76991 164 117 90
-0.422838 0.243695 1.85864 139 94 70
-0.422441 0.243933 1.85734 139 94 70
-0.0144494 0.19122 1.94505 56 30 7
0.048007 0.456781 2.2321 150 138 116
0.499055 0.103671 2.89418 76 75 38
0.387894 0.594421 1.98605 96 66 66
0.481274 0.692783 1.93807 124 62 64
0.551728 0.403918 1.82957 138 110 101
0.55616 0.374916 1.80881 156 115 99
0.565266 0.223585 1.58079 179 132 111
0.76125 0.319551 1.94698 159 146 104
0.654396 0.303377 1.63692 130 26 20
-0.604765 0.353286 1.54728 160 142 140
-0.646417 0.457135 1.62177 24 19 30
-0.557655 0.123446 1.87021 140 125 96
0.0123871 0.625763 1.74271 84 18 10
0.562643 0.543398 1.91326 128 103 90
0.64754 0.0628768 1.69583 110 56 26
-0.039681 0.625143 1.75735 176 129 122
0.165207 0.628833 1.85702 150 134 118
0.552115 0.403525 1.83023 123 97 88
-0.77923 0.587855 1.78727 157 122 107
-0.701945 0.562319 1.67842 169 113 44
-0.726205 0.57372 1.72557 162 107 36
-0.602305 0.354181 1.54341 158 140 140
-0.708336 0.57871 1.7525 110 9 9
-0.708336 0.57871 1.7525 110 9 9
-0.633691 0.468238 1.64066 20 16 28
-0.692961 0.569961 1.73722 104 8 10
-0.584122 0.352684 1.61219 162 148 130
-0.58804 0.351744 1.61864 162 148 130
-0.626988 0.517165 1.70424 55 2 2
-0.517696 0.371212 1.7163 132 14 16
-0.515621 0.0682473 1.78006 116 74 54
-0.537602 0.295346 1.81789 159 144 124
-0.494656 0.355411 1.72511 162 143 120
-0.512466 0.266807 1.88945 40 13 10
-0.500826 0.274701 1.89759 72 30 14
-0.488832 0.27088 1.87705 140 96 78
-0.376493 0.31283 1.82825 174 112 90
-0.359461 0.0747216 1.87698 149 143 91
-0.414052 0.498089 1.96411 196 142 108
-0.303454 0.332866 1.80813 56 14 4
-0.219325 0.295393 1.83448 146 99 78
-0.221154 0.498159 2.01692 134 80 56
-0.0724655 0.0941359 1.89295 113 72 54
-0.0101884 0.163405 1.95735 92 66 32
-0.0505975 0.73014 1.86488 210 179 172
0.0602332 0.605253 1.73028 72 15 8
0.0596613 0.617237 1.72302 94 82 66
0.111185 0.703411 1.80932 149 128 121
0.14999 0.632723 1.84444 79 64 54
0.174208 0.629559 1.83418 105 87 72
0.423 0.316193 1.90454 164 137 110
0.42476 0.417869 1.97187 97 70 43
0.433102 0.454395 2.01503 148 114 94
0.446537 0.196092 1.7459 86 68 59
0.464449 0.315421 1.89692 164 127 109
0.469891 0.312767 1.89848 110 59 32
0.475354 0.342517 1.92323 160 122 104
0.466044 0.520283 1.96148 82 68 50
0.466287 0.520104 1.96265 82 68 50
0.481976 0.189306 1.65313 102 7 4
0.544791 0.288619 1.97027 144 142 88
0.556247 0.312084 2.02466 90 51 16
0.563065 0.294073 2.02515 94 68 24
0.500893 0.513858 1.90601 164 134 118
0.481983 0.710925 1.93917 174 150 145
0.481 0.710791 1.93384 174 150 145
0.486137 0.680382 1.92191 138 24 21
0.517799 0.6176 1.87406 109 62 36
0.554169 0.390575 1.81639 23 16 14
0.558563 0.373003 1.79407 140 46 23
0.540311 0.617744 1.87126 96 50 26
0.63795 0.0538808 1.69799 106 59 26
0.600335 0.431308 1.81001 34 16 8
0.654753 0.0643555 1.69693 117 64 34
0.628331 0.451531 1.82908 159 94 68
0.679532 0.0831915 1.69532 18 8 3
0.65503 0.447162 1.84408 177 146 127
0.662505 0.523059 1.88439 182 154 132
0.650714 0.70432 1.92423 167 138 116
0.712659 0.319752 1.65958 152 134 124
0.72247 0.321644 1.6708 191 166 153
0.775188 0.18451 1.6759 138 112 91
0.751122 0.321076 1.69425 80 52 21
0.830492 0.176242 1.73805 158 136 112
0.788085 0.289672 1.69816 88 54 19
0.85854 0.142662 1.77274 94 62 24
0.85854 0.142662 1.77274 94 62 24
0.866322 0.131323 1.78095 96 62 24
0.85643 0.154021 1.76507 158 138 113
-0.711618 0.539123 1.66366 120 18 20
-0.715207 0.573734 1.70938 162 106 42
-0.742572 0.62381 1.76618 139 16 14
-0.570648 0.358907 1.68732 162 144 124
-0.500821 0.261008 1.82854 95 44 31
-0.174586 0.0554469 1.91375 174 116 88
-0.205255 0.397908 2.01049 166 113 93
-0.0686843 0.271962 2.00322 85 49 26
-0.0310223 -0.0446543 2.21135 70 62 24
-0.0686776 0.71121 1.91143 68 30 24
-0.00649431 0.633781 1.74459 62 46 40
0.136054 0.621262 1.79345 150 131 116
0.136054 0.621262 1.79345 150 131 116
0.406892 0.417614 2.12082 148 135 114
0.364241 0.528827 1.81978 92 57 29
0.458438 0.388366 1.95768 151 122 105
0.48394 0.402417 2.03374 82 44 18
0.46457 0.20518 1.71561 160 132 120
0.504094 0.35983 1.97087 13 9 5
0.451336 0.618998 1.91946 148 106 90
0.480126 0.640001 2.04716 251 236 230
0.480126 0.640001 2.04716 251 236 230
0.541615 0.258927 1.95863 160 138 104
0.552169 0.282562 2.00476 148 143 92
0.543769 0.291486 1.91563 150 146 94
0.507613 0.293891 1.70017 164 148 105
0.563712 0.316793 1.92579 148 140 100
0.535948 0.507982 1.9262 118 86 69
0.527215 0.638001 1.91541 179 154 148
0.58495 0.534747 1.91543 74 32 10
0.564303 0.265052 1.63054 96 72 64
0.568344 0.272723 1.6482 58 38 31
0.594003 0.378165 1.79097 79 20 4
0.617332 0.341958 1.81092 146 118 105
0.578443 0.321114 1.6567 128 80 55
0.578443 0.321114 1.6567 128 80 55
0.583733 0.289517 1.6423 89 71 63
0.581264 0.30536 1.64577 154 136 129
0.603669 0.529219 1.86995 109 90 77
0.581835 0.282484 1.61025 78 64 60
0.618861 0.350378 1.78569 87 47 26
0.587389 0.277428 1.60796 156 140 134
0.59745 0.295131 1.6421 82 68 64
0.59745 0.295131 1.6421 82 68 64
0.627405 0.460208 1.8302 66 22 8
0.603273 0.246585 1.59181 226 204 198
0.611137 0.252811 1.61504 192 174 169
0.65223 0.403804 1.8498 144 77 44
0.669512 0.373969 1.879 12 4 2
0.612578 0.302544 1.63286 86 69 64
0.619489 0.727325 1.93744 134 100 80
0.621031 0.337187 1.66401 52 12 2
0.668216 0.388901 1.84072 156 84 54
0.70296 0.477177 1.95187 151 130 112
0.668035 0.56266 1.89642 28 18 13
0.668035 0.56266 1.89642 28 18 13
0.642905 0.319746 1.6567 174 154 148
0.69174 0.499131 1.91296 50 40 33
0.69174 0.499131 1.91296 50 40 33
0.681323 0.408907 1.81436 175 140 120
0.655482 0.299512 1.63094 180 151 144
0.6776 0.690052 1.93869 172 146 131
0.678026 0.684834 1.92937 177 152 138
0.698394 0.66995 1.93598 136 76 50
0.748403 0.585915 1.96062 103 66 31
0.771134 0.549609 1.97424 153 136 115
0.726857 0.271896 1.6295 108 62 32
0.758893 0.305624 1.68309 137 96 84
0.773342 0.298708 1.69548 60 28 18
0.745554 0.294869 1.62514 113 20 15
0.776903 0.287328 1.68453 170 127 86
0.802504 0.218131 1.67621 102 64 26
-0.720544 0.387726 1.60145 117 22 12
-0.720167 0.374296 1.61105 166 137 116
-0.38592 0.0872173 1.60966 58 42 14
-0.0483035 0.262025 1.97989 102 64 38
0.0554271 0.644074 1.75855 201 181 176
0.0891014 0.641244 1.75625 138 23 26
0.541406 0.547133 1.92632 160 127 107
0.614583 0.725982 1.94653 134 106 89
-0.749944 0.586555 1.76522 150 20 18
-0.587417 0.293211 1.56155 164 148 126
-0.651905 0.661867 1.76912 124 12 13
-0.30056 0.502419 2.06761 152 100 74
0.162855 0.634777 1.84027 88 71 60
0.174709 0.640859 1.82552 157 140 134
0.405714 0.356935 2.06866 154 142 122
0.376605 0.602088 2.03327 97 33 30
0.417153 0.334164 1.89072 162 132 110
0.498513 -0.0044113 1.85443 95 72 32
0.498513 -0.0044113 1.85443 95 72 32
0.456596 0.191682 1.66426 156 122 105
0.457829 0.190794 1.66714 156 122 105
0.462324 0.236832 1.72028 178 143 130
0.47416 0.343914 1.91458 161 122 104
0.544952 0.334854 2.00489 61 38 14
0.515289 0.507586 1.91484 42 18 8
0.550815 0.530344 1.89136 171 148 136
0.565954 0.59729 1.90431 158 128 117
0.589266 0.492846 1.88651 100 57 34
0.590708 0.388463 1.78004 77 22 11
0.610003 0.373717 1.79777 94 37 18
0.628793 0.451293 1.83071 161 96 72
0.681114 0.0980121 1.67895 162 127 95
0.616208 0.702176 1.9189 193 166 145
0.616208 0.702176 1.9189 193 166 145
0.626292 0.681269 1.91357 194 164 150
0.666532 0.386236 1.81417 30 9 7
0.773632 0.300179 1.92767 118 76 37
0.691189 0.293095 1.62708 154 134 126
0.689639 0.283963 1.61522 120 78 58
0.700315 0.309387 1.63939 155 138 118
0.714483 0.248756 1.63448 114 73 48
0.738138 0.620256 1.95156 112 78 48
0.738748 0.320381 1.67653 152 133 116
0.822153 0.18205 1.71965 159 134 112
0.873712 0.14568 1.7693 155 148 95
0.87139 0.180722 1.74466 146 144 92
-0.0146612 0.227592 1.95286 96 66 28
-0.698131 0.444223 1.56344 155 102 42
-0.672198 0.350642 1.53352 188 136 132
-0.749629 0.588401 1.76317 152 22 18
-0.722204 0.595779 1.7318 138 12 12
-0.589361 0.359876 1.69062 134 93 34
-0.505894 0.076262 1.84786 50 26 16
-0.413907 0.253133 1.8428 92 50 24
-0.159129 0.107958 1.9745 80 30 10
0.655677 0.0585758 1.7071 120 68 36
0.725106 0.28333 1.90676 54 17 4
0.71129 0.437611 1.81476 168 146 120
