ply
format ascii 1.0
element vertex 599
property float x
property float y
property float z
property uchar red
property uchar green
property uchar blue
end_header
-0.01336 -0.183127 -0.113895 0 255 0
0.0493092 0.0153247 -0.20134 0 255 0
0.366216 0.0172908 -0.252698 0 255 0
0.654703 0.00329334 -0.295082 0 255 0
1.00146 -0.00343343 -0.289392 0 255 0
1.36179 -0.00502598 -0.251675 0 255 0
1.68349 -0.0143317 -0.167303 0 255 0
1.94015 -0.0564365 -0.0373705 0 255 0
2.22404 -0.0715728 0.157706 0 255 0
2.30478 -0.0930219 0.225983 0 255 0
2.19839 0.125991 0.178013 0 255 0
1.95653 0.199467 0.132677 0 255 0
1.62264 0.189371 -0.0275374 0 255 0
1.32294 0.183834 -0.200582 0 255 0
0.862092 0.223051 -0.377762 0 255 0
-0.718636 -0.974875 2.51906 158 148 106
-0.677271 -0.958657 2.53077 160 160 114
-0.371145 -1.20675 3.43798 168 169 114
-0.601383 -0.894555 2.55131 142 141 100
-0.186161 -1.0633 3.25803 174 172 138
-0.145873 -1.02103 3.22981 172 173 133
-0.557006 -0.859529 2.57267 160 160 113
-0.104672 -0.9757 3.20335 154 157 125
-0.534126 -0.790991 2.54462 114 110 86
-0.0625947 -0.925236 3.16953 160 164 122
-0.503105 -0.782514 2.58823 147 142 126
-0.519406 -0.769256 2.56039 150 144 117
-0.079682 -0.886046 3.12079 148 153 118
1.34272 -0.780992 2.72387 140 139 100
-0.0102012 -0.865518 3.14598 172 174 140
-0.467193 -0.736598 2.56282 133 134 109
1.31808 -0.749779 2.75469 148 144 110
1.27643 -0.741819 2.75583 130 128 87
-0.437057 -0.711393 2.58064 127 127 104
0.0446065 -0.796064 3.11205 160 164 124
-0.364073 -0.712425 2.67318 160 158 119
-0.00701493 -0.786379 3.08773 146 152 118
0.00478088 -0.761032 3.04785 148 156 120
-0.310736 -0.669486 2.69121 154 153 111
0.098108 -0.728061 3.07805 151 158 115
-0.366225 -0.649393 2.60769 140 138 116
-0.40363 -0.644501 2.62121 126 122 88
-0.32968 -0.637447 2.65336 140 140 117
-0.257662 -0.626929 2.72157 161 160 120
0.165565 -0.653112 2.97812 182 188 147
-0.290243 -0.580517 2.63782 164 161 140
-0.20179 -0.577002 2.74644 179 178 143
-0.223014 -0.548683 2.68127 140 140 121
-0.145299 -0.529137 2.78067 162 162 128
0.14814 -0.523564 2.94859 174 182 143
0.12153 -0.520646 2.93874 142 153 110
-0.170179 -0.499865 2.69879 138 138 117
0.0811171 -0.519588 2.94678 140 142 98
-0.0918431 -0.48155 2.80693 164 164 130
0.180141 -0.478364 2.92152 182 186 149
0.483595 -0.458337 2.86907 178 178 140
-0.120618 -0.453185 2.73114 136 134 112
-0.076775 -0.456107 2.84878 180 178 152
0.495889 -0.449983 2.97453 122 124 88
-0.157411 -0.42686 2.64758 144 142 118
-0.0437278 -0.439944 2.84023 179 180 142
-0.0947804 -0.428195 2.74555 138 138 116
0.268275 -0.441173 2.99077 151 154 112
-0.0506674 -0.383663 2.76898 136 135 114
-0.113736 -0.375161 2.67989 170 168 146
-0.0309175 -0.366356 2.77292 137 136 114
0.360755 -0.381877 2.97906 182 182 142
0.502764 -0.354092 2.93937 142 150 110
0.0538241 -0.35814 2.8701 168 168 128
0.30828 -0.354552 2.93018 180 186 142
1.04376 -0.352256 3.13341 199 193 151
0.0140859 -0.324757 2.80125 147 146 123
-0.0634384 -0.319625 2.69298 141 142 118
0.107095 -0.310659 2.88297 137 138 100
0.0585135 -0.310404 2.8259 141 140 112
0.033694 -0.308085 2.8025 136 136 110
0.0681939 -0.278632 2.81695 151 152 122
0.178062 -0.260242 2.91573 139 142 100
0.0980248 -0.256327 2.83497 139 139 108
0.931239 -0.238969 3.18354 178 182 148
-0.49696 -0.259799 3.01247 124 120 78
0.121354 -0.234991 2.84552 152 152 120
0.226421 -0.217512 2.84812 203 206 160
0.859778 -0.209593 3.25308 176 173 135
0.156837 -0.206753 2.85536 126 130 99
-0.302272 -0.214673 2.95187 141 142 108
-0.127641 -0.194539 3.02566 122 124 84
0.970714 -0.161501 3.05159 143 129 96
-0.252282 -0.188451 2.96828 122 110 82
0.805356 -0.162948 3.22417 156 150 114
0.2099 -0.161381 2.71022 127 126 84
-0.221511 -0.178814 2.93307 81 74 48
-0.0707005 -0.160757 3.04808 141 144 104
-0.160566 -0.162127 2.9324 114 114 90
0.372914 -0.127969 2.57234 162 165 132
0.453543 -0.120305 2.69623 129 131 118
-0.114409 -0.130664 2.95738 120 119 94
0.123032 -0.0959756 3.40381 92 67 46
0.170425 -0.0820656 3.28054 72 58 40
-0.213101 -0.0865378 2.86343 180 132 104
0.248695 -0.0922279 2.51866 154 155 114
-0.127728 -0.0615478 3.32617 182 166 126
-0.187352 -0.0828987 2.83332 173 139 112
0.320022 -0.0858351 2.53813 148 153 106
-0.154513 -0.0504805 3.2425 196 174 141
0.652589 -0.0387431 3.19826 110 92 68
-0.235797 -0.0516387 2.81345 209 194 152
-0.187824 -0.0284984 3.3024 110 72 45
0.784864 -0.024163 3.13758 93 82 54
0.886315 -0.00285754 3.21947 191 186 150
0.596254 0.00962416 3.18612 106 93 74
0.949818 0.00504648 3.07023 184 176 140
-0.188531 -0.0256468 2.80221 179 128 95
0.320125 -0.0236739 2.41707 140 150 106
0.83985 0.0381561 3.21892 122 92 66
0.254365 0.000549196 2.40314 136 140 104
0.893288 0.0442346 2.91226 183 168 144
0.744104 0.105922 3.21062 52 27 18
0.871268 0.111328 2.9622 108 79 58
0.837775 0.134698 2.93135 104 72 44
0.871358 0.144917 2.92688 194 156 138
0.81726 0.152363 2.93884 136 98 82
0.842583 0.171837 2.89058 138 98 77
0.693761 0.158228 2.76324 144 136 118
0.899335 0.196726 2.91798 216 173 156
0.920487 0.212256 2.89351 211 186 170
0.850255 0.211913 2.78307 215 186 172
0.702812 0.205103 2.675 92 96 72
0.555331 0.211456 2.73045 56 54 41
0.818623 0.230718 2.63148 160 150 134
0.598337 0.224311 2.70225 72 62 44
0.744161 0.229103 2.62106 102 106 79
0.777401 0.252833 2.57959 96 98 71
0.437094 0.251799 2.54334 115 82 74
-0.0110446 0.275998 2.65877 198 156 133
0.182636 0.280211 2.64139 144 104 84
0.65374 0.308247 2.64293 192 159 148
-0.10465 0.394234 3.05215 96 61 40
0.854428 0.316317 2.4865 103 106 80
0.927937 0.343485 2.43809 139 136 104
0.87696 0.348792 2.44781 110 108 88
0.593096 0.400169 2.71098 94 56 52
0.507128 0.388279 2.67219 94 62 59
0.351743 0.291904 2.09829 164 152 137
0.45881 0.39007 2.63817 74 45 41
0.865696 0.380268 2.43749 135 130 117
0.52111 0.453732 2.73793 99 60 57
0.906396 0.426334 2.39661 140 136 123
0.0493914 0.72739 3.14062 108 67 53
0.598261 0.678849 2.90762 114 74 74
0.702487 0.757374 3.05974 167 128 120
0.956255 0.599294 2.48962 134 96 74
0.297014 0.457482 1.96803 162 161 151
1.4354 -0.856599 2.6056 145 149 116
1.38591 -0.764775 2.67794 164 166 132
-0.247052 -0.574168 2.67408 108 108 88
1.00109 -0.53774 2.73104 92 92 75
0.509502 -0.515702 2.89714 159 161 122
-1.66547 -0.558497 4.03162 184 179 122
0.381857 -0.156814 2.66128 116 119 78
-0.0167836 -0.157689 3.79155 116 116 77
0.0947529 -0.16339 2.80415 94 93 66
-0.193344 -0.138982 2.89631 98 80 58
0.706784 -0.0786701 3.183 120 110 71
0.0786311 -0.0812384 2.84967 118 104 78
-0.0201607 -0.018159 3.26565 58 54 37
0.311501 -0.0544814 2.458 126 132 88
0.724502 0.0314049 3.07036 72 63 48
0.866534 0.0688292 3.05612 113 86 59
-0.153581 0.0237478 2.73493 137 94 68
0.271178 0.0744011 2.31478 98 100 67
0.17342 0.170317 3.08786 32 26 21
0.79351 0.185454 2.78133 140 114 100
0.672424 0.186733 2.70634 78 80 58
0.830747 0.212612 2.83637 166 148 136
0.508772 0.200904 2.74201 40 40 31
0.779823 0.207519 2.74184 122 101 78
0.729898 0.226267 2.65938 70 76 50
0.793386 0.225108 2.64634 102 88 65
0.301885 0.142811 2.24495 118 124 88
0.680769 0.238245 2.69742 60 60 40
0.690477 0.263061 2.60289 130 120 105
0.20615 0.26581 2.65169 79 40 32
0.74157 0.298426 2.69678 140 126 115
0.832402 0.295094 2.48344 66 73 48
0.171197 0.317774 2.70052 129 84 57
0.657556 0.340407 2.68061 108 75 72
0.761396 0.494192 2.98585 84 52 48
0.95971 0.390126 2.41305 114 110 88
-0.0837873 0.538666 3.1814 158 134 119
0.45258 0.456496 2.68532 95 71 64
0.252021 0.43766 1.9487 111 94 67
0.0759833 0.900817 3.20865 128 88 74
-0.387985 0.619831 1.83332 138 129 116
0.500906 -0.936735 3.29494 104 108 64
0.208469 0.0152954 3.07378 96 92 74
-0.344623 -0.612491 2.69651 108 108 84
1.05802 -0.578392 2.7174 116 119 100
-0.0206965 -0.131895 3.04479 122 124 86
0.0828398 0.187899 2.80512 62 34 24
0.377355 -0.445458 2.81785 132 133 86
0.553306 -0.120962 2.93717 119 109 96
0.363325 0.0447952 2.34245 106 116 92
0.647937 0.256832 2.65488 60 50 36
0.57077 -0.167775 2.88464 100 103 92
0.27262 0.310182 3.13724 68 41 36
0.223842 0.798292 3.20963 104 52 40
0.437176 0.857319 3.39085 114 84 50
0.611094 -0.725136 2.99027 153 160 113
0.937329 -0.558358 3.93153 132 134 107
0.521574 -0.428053 3.08371 120 128 86
-0.490139 -0.513997 4.35738 191 194 144
-0.536934 -0.262298 2.98073 116 108 62
0.02633 -0.223792 2.75051 126 124 96
0.523455 -0.15961 2.88311 103 106 93
0.137811 -0.116046 2.76487 132 129 99
-0.233749 -0.0819777 2.80293 167 140 98
-0.132189 -0.016256 3.22203 116 82 50
-0.0552596 0.125822 2.78128 120 111 96
0.117727 0.135696 3.03869 52 39 26
0.071836 0.139833 2.98229 52 38 28
-0.0688399 0.179274 2.79125 141 112 103
-0.15937 0.159618 2.04624 106 112 94
0.15673 0.213713 2.64481 66 35 24
0.465904 0.25204 2.51325 142 106 96
0.156167 0.310831 2.99618 102 58 37
0.845766 0.260554 2.49746 97 98 70
0.0940709 0.529363 3.04075 108 60 44
0.0659477 0.546472 2.98302 68 32 18
0.0385343 0.677716 3.13341 128 92 81
0.32307 0.466322 1.99354 55 55 28
0.431275 0.818534 2.94489 132 98 90
0.293504 0.781173 2.73795 92 76 51
0.220958 0.602749 1.94418 84 76 50
0.428152 0.988761 3.0553 149 113 106
0.439599 1.01501 3.05282 172 152 154
-0.226183 -0.0520974 2.77067 182 161 115
0.21973 0.817131 3.17019 83 32 21
-0.0518333 0.109706 2.68564 106 110 82
0.0724572 0.445869 3.00923 88 41 31
0.74036 0.18033 2.68969 107 100 80
-0.0195871 0.49306 3.03843 93 56 35
-0.193148 -0.988109 3.19382 132 131 90
1.28384 -0.688165 2.71777 147 148 112
1.1232 -0.34778 1.57565 100 107 60
0.410828 -0.494492 2.65127 116 124 72
0.954959 -0.494227 2.73211 93 100 81
0.449714 -0.180841 2.62438 107 108 80
0.696969 -0.186366 3.39868 110 116 80
0.416579 -0.0180094 2.98545 102 106 99
-0.270272 -0.0117297 3.46278 144 128 84
-0.0424242 -0.00941445 2.96806 110 98 67
-0.189064 0.00595417 2.7324 165 135 94
-0.0310104 0.00502152 2.96242 46 37 12
0.443196 0.0213868 3.11307 96 92 85
0.415085 0.0278477 2.98903 116 118 105
0.263812 0.0475307 2.34261 83 84 58
0.912511 0.0989824 2.93049 182 142 134
0.115088 0.178011 3.03455 20 14 8
-0.148885 0.165853 2.22645 89 88 72
0.922344 0.254128 3.05033 171 157 144
0.642514 0.242036 2.65169 40 36 24
0.376436 0.266594 2.75724 68 33 24
0.262662 0.245418 2.17299 116 98 68
0.773379 0.375447 2.83596 72 42 36
0.414026 0.363045 2.58786 130 84 66
0.376196 0.395248 2.65984 60 20 12
0.352156 0.345167 2.09417 83 89 69
0.771741 0.467196 2.95719 115 88 84
0.444132 0.566354 2.76359 89 58 52
0.390765 0.583003 2.7651 80 33 19
0.357294 0.479234 2.00699 82 60 45
1.0272 0.58277 2.40673 80 49 30
0.513992 0.692286 2.85435 92 49 46
-0.349385 0.499845 1.8605 99 96 82
0.161526 0.778851 3.04639 77 58 32
0.581362 0.770975 3.00621 66 36 35
0.493736 0.74853 2.90711 86 36 30
0.373012 0.747374 2.87098 80 24 16
-0.330309 0.515964 1.79222 104 100 84
0.709534 0.854581 3.25569 126 99 93
0.353074 0.859298 2.9781 77 25 14
0.64068 0.917985 3.1935 116 90 90
0.42922 0.862468 2.96234 95 48 41
-0.346095 -0.686335 2.67385 96 96 58
0.937228 -0.439829 1.81678 90 88 58
0.953613 -0.430317 1.76779 100 100 66
0.232839 -0.50463 2.96911 116 121 76
0.799676 -0.365569 2.77477 88 92 70
0.243379 -0.351018 2.87361 121 124 86
0.325061 -0.322524 2.90951 172 176 130
0.636932 -0.143879 3.45883 126 118 86
0.368237 -0.0445674 2.91144 110 114 96
-0.00884609 -0.0370221 2.96127 82 76 56
-0.102711 0.0218938 2.98208 120 108 86
-0.225086 0.0926539 2.66681 90 93 59
-0.199944 0.115475 2.89869 74 71 54
-0.0475145 0.16685 2.85788 78 59 50
-0.107518 0.18548 2.75014 118 72 42
0.377192 0.20675 2.60111 60 44 28
0.260473 0.200877 2.22639 50 36 19
0.937251 0.46451 2.39219 125 122 107
0.56932 0.0265622 3.16059 33 26 12
0.74065 0.179079 2.69872 58 52 35
0.353384 0.174928 2.36041 68 78 56
0.531974 0.552635 2.76803 84 47 42
0.707042 0.731339 3.06297 104 66 62
0.495305 0.849172 2.97569 88 40 36
0.0789553 -0.519391 2.94903 124 130 82
0.975393 -0.155185 3.03164 108 88 56
0.542438 -0.10902 3.38535 76 60 48
0.656203 0.0838033 3.05874 34 30 20
0.35625 0.155193 2.24802 84 90 68
0.778694 0.189707 2.85447 72 50 34
0.49774 0.59561 2.77916 87 48 40
0.802052 -0.144396 3.1626 78 87 49
0.20705 -0.448551 2.94248 108 110 74
0.160958 0.961534 3.16418 106 88 76
-0.0212747 0.00331961 2.99221 60 47 31
0.60471 0.133046 2.79353 30 30 16
0.409163 0.0622581 3.01525 89 90 79
0.759131 0.773152 3.20135 96 64 57
-0.0428727 -0.0572749 2.8814 109 88 56
-0.0274282 0.185883 2.87506 148 143 122
0.848891 0.427413 3.15281 130 120 105
0.60204 -0.133599 3.62927 96 80 55
-0.0214968 0.146277 2.87929 65 38 19
-0.0448633 0.147947 2.85158 59 46 34
0.813817 0.179033 2.95425 50 24 10
0.262949 0.339935 2.09821 78 68 38
0.795504 0.617358 3.23741 108 90 80
-0.129279 -0.958691 3.17553 84 94 60
0.999422 -0.606606 2.82077 114 117 81
0.445717 -0.515256 2.90431 115 116 66
-0.511145 -0.289249 3.04779 82 80 37
0.64146 -0.226551 2.84963 62 64 50
0.497495 -0.167039 2.56069 78 84 68
0.809962 -0.151179 3.16408 68 79 38
-0.232345 -0.133708 2.87014 128 99 62
0.599754 -0.155242 3.49929 150 156 114
0.324303 -0.0817246 2.799 84 86 54
0.803562 0.00279958 3.2393 73 43 24
0.256517 0.0102677 2.39509 63 66 30
-0.134719 0.0250925 2.74912 110 106 70
-0.107054 0.0949617 2.92313 119 110 94
-0.137103 0.0920065 2.77445 80 66 48
-0.0641952 0.0961036 2.15021 72 82 59
-0.158743 0.124308 2.71338 109 92 67
-0.129298 0.150866 2.71367 141 105 82
0.740298 0.17471 2.70301 80 76 64
0.783215 0.18648 2.84895 74 46 33
-0.113002 0.238039 2.71729 126 97 76
0.353929 0.248802 2.25439 78 63 41
0.427642 0.301698 2.56441 121 77 57
0.263306 0.361998 2.04543 73 65 40
0.626011 0.49985 2.79689 85 55 53
0.319085 0.387484 1.98437 108 108 94
0.333552 0.519108 2.73636 58 18 10
0.722463 0.579085 2.9526 62 30 27
0.71716 0.670339 3.06403 67 35 30
0.0732186 0.828404 2.66791 92 86 68
0.439157 1.01634 3.0532 146 119 116
-0.542772 -0.959706 4.0341 150 153 97
0.201059 -0.531689 3.0913 98 106 64
0.733608 -0.332892 2.8513 69 76 56
0.329698 -0.266414 2.83901 101 99 49
0.575096 -0.20138 2.67767 60 65 42
0.824117 -0.0451973 3.3115 115 90 64
0.916815 0.0203173 3.03408 156 130 109
-0.249857 0.0747685 2.75673 82 85 50
0.353361 0.255222 2.6471 66 29 18
0.355115 0.22269 2.14517 82 88 64
0.354757 0.257138 2.10167 58 68 48
0.327709 0.338424 2.06611 90 96 78
0.637926 0.443738 2.75641 96 72 70
0.350364 0.513752 2.7036 48 10 4
0.694581 0.890287 3.33757 124 99 94
0.210926 0.630157 1.81652 90 81 66
0.365083 0.97346 3.05098 110 64 48
0.523218 -0.551328 2.90588 84 93 56
0.714161 -0.292743 2.82342 70 76 62
0.420268 0.112992 3.08721 54 54 38
0.790657 0.594235 3.15654 90 68 50
-0.0444547 0.056518 2.83197 58 62 44
-0.0276837 -0.268971 2.73603 94 92 54
0.089938 -0.5242 2.82661 116 116 67
0.198217 -0.321568 2.82168 101 99 54
-0.212879 0.0583593 3.14316 69 70 52
0.619114 0.856594 3.08859 80 42 40
0.517385 -0.349272 3.11226 111 115 86
0.508563 -0.332591 3.12192 74 77 55
0.540813 -0.191222 2.87688 70 74 44
0.556378 0.0333772 2.8632 50 50 32
0.0463626 -0.0740112 3.12702 95 92 58
0.106803 0.576608 2.83424 94 68 46
0.411669 -0.523465 2.71521 127 130 86
0.239679 -0.349739 2.90756 113 118 79
-0.160562 0.0434404 2.74196 68 56 36
0.767792 0.70895 3.19324 100 67 56
0.550445 -0.746993 2.98103 107 116 70
0.365279 -0.403888 2.86554 154 154 108
0.458783 -0.103121 2.86355 49 61 38
-0.0847039 0.190354 2.73212 114 65 38
0.01822 0.849985 3.1972 96 77 62
-0.0737474 0.146928 2.90568 42 30 16
0.855079 0.274914 2.86008 89 71 53
0.254143 0.564701 1.8861 108 98 78
0.561065 0.880406 3.10214 115 86 82
0.525481 -0.614914 3.06611 95 105 58
0.880431 -0.431591 1.96125 86 89 63
-0.246211 -0.54431 2.60576 54 58 38
-1.9043 -0.739062 3.72721 146 143 89
0.720179 -0.351251 2.14632 92 92 88
0.847635 -0.407559 2.77026 88 96 73
0.521887 -0.294369 2.46275 82 82 50
0.223477 -0.17426 2.77743 93 95 52
-0.231553 -0.0976319 2.79791 144 124 78
0.72492 -0.100419 3.29676 94 97 66
-0.148186 -0.0473432 3.20847 141 128 92
0.81964 -0.0534904 3.15255 102 83 60
0.547865 -0.0035857 3.3997 53 38 26
0.377428 0.0130802 2.35367 63 72 50
0.33296 0.0403747 2.93428 94 90 74
0.336622 0.0689741 2.87323 63 64 50
-0.101516 0.0952471 2.81383 86 74 46
-0.108161 0.091426 3.07809 92 84 71
0.767918 0.0814942 3.14222 28 10 4
0.00486175 0.178398 2.84215 74 67 47
0.0861104 0.195977 2.52837 92 80 74
0.350794 0.185215 2.41381 31 34 21
0.861727 0.271553 2.50156 73 56 36
0.728689 0.637576 3.02516 95 66 64
0.76487 0.790507 3.36236 98 74 66
0.0549407 0.851442 3.13267 110 74 64
0.604477 0.826814 3.10613 94 51 50
0.568914 0.843848 3.02643 101 68 66
0.228216 0.955409 3.06172 128 98 94
0.704363 -0.261296 2.89816 100 106 82
0.568174 -0.203576 2.86144 51 56 30
0.847507 -0.179707 3.17389 90 102 63
0.3589 -0.0746626 2.50648 94 100 68
0.657493 -0.0978073 3.34298 138 124 98
0.900964 0.00348541 2.99367 146 114 82
-0.0302409 0.115643 2.62498 79 62 32
-0.103372 0.117606 2.12613 70 77 56
-0.0748431 0.194865 2.69979 134 95 68
-0.0896862 0.200001 2.7889 108 72 54
0.313377 0.212655 2.39922 53 55 36
0.264396 0.222166 2.18841 101 92 62
0.850771 0.255209 2.78284 148 120 112
0.729205 0.739469 3.1862 71 28 18
-0.392799 0.612202 1.84 122 109 92
0.483364 0.960581 3.07692 88 48 41
0.597448 -0.231391 2.92099 57 62 46
0.896377 0.208015 2.89224 74 34 16
-0.0424075 0.387132 2.83756 142 122 98
0.303562 0.130666 2.6741 42 44 32
0.793914 0.229901 2.62682 52 40 22
-0.472998 -0.710884 2.60001 104 105 71
0.476112 0.00536344 3.26409 19 9 7
0.897798 0.252929 2.81316 73 52 41
1.05294 -0.554049 2.78323 96 105 66
1.13903 -0.621459 2.69663 72 72 42
0.949333 0.0140975 2.95551 158 126 116
0.905875 0.159175 2.90953 140 94 77
0.929225 0.183432 2.9492 138 126 114
0.746367 0.205684 2.81632 70 62 45
1.01101 0.581525 2.42728 144 120 106
1.36185 -0.722852 2.5005 108 116 71
0.93845 -0.439903 1.73255 78 74 40
0.36747 -0.164917 2.69449 98 95 48
0.409845 0.0274298 2.14192 99 108 80
0.39451 0.119449 2.74154 54 59 46
-0.0567249 0.854186 3.41653 69 60 36
0.689011 0.9264 3.56825 98 66 59
0.0878924 -0.608203 2.21435 97 96 46
0.682258 -0.311418 2.28087 96 100 94
0.664167 -0.237855 2.82269 52 58 44
0.555333 -0.190182 2.50626 74 82 71
0.408323 -0.0214849 3.0015 70 78 70
-0.127375 0.0113869 2.7326 113 109 62
-0.107728 0.0867306 2.66828 82 61 44
-0.0922056 0.16845 2.72214 120 82 58
0.906579 0.110037 3.20595 87 87 56
0.694324 0.151092 3.11343 26 14 8
0.814506 0.179663 2.94268 88 52 32
0.894442 0.211706 2.8983 84 46 30
0.848763 0.287731 2.79021 93 62 56
0.846029 0.311252 3.07077 51 27 20
0.31986 0.352155 2.0824 76 81 62
0.661301 0.700339 3.02589 86 45 43
0.713576 0.848516 3.35404 106 71 62
0.617523 0.919756 3.23673 103 72 68
0.423149 0.970461 3.10233 94 47 36
0.619745 -0.275074 2.46348 86 94 83
-0.162342 0.0929507 2.73269 121 90 63
0.879432 0.171592 2.92324 82 38 13
0.328717 0.37003 1.99001 92 94 76
1.03352 -0.171077 3.13068 140 147 112
0.904766 0.253725 2.98013 108 82 73
-0.0167775 0.609271 3.00816 109 77 58
0.421155 -0.0117038 3.1773 26 22 17
0.400888 0.0484476 3.17685 32 32 22
0.567052 0.35826 2.67275 58 22 14
0.766049 0.710551 3.19472 68 32 24
0.836081 0.409068 3.33586 100 86 72
0.35896 0.497581 2.00116 84 79 57
0.618033 -0.822593 2.98633 118 130 88
0.0534134 -0.326236 2.93257 62 67 33
0.167061 -0.0364691 2.95064 94 100 73
0.940663 0.472082 2.39598 90 80 62
0.818481 -1.10125 3.12779 103 108 67
0.852019 -0.421174 1.9286 60 55 38
0.22366 -0.357877 2.66964 127 126 78
1.05654 -0.330292 3.13864 120 130 88
0.444563 -0.194358 2.9982 74 78 45
-0.227532 -0.0614253 2.77045 150 124 78
0.963308 -0.189306 3.09541 56 40 13
0.501685 -0.112371 3.02621 54 46 32
0.436637 -0.144347 3.62291 127 121 80
0.401561 -0.013471 3.39589 24 14 10
0.325037 0.0664943 2.80606 61 64 53
0.195282 0.270609 2.6632 78 50 40
0.857467 0.221015 3.30886 120 110 96
0.85986 0.259215 3.33615 129 123 110
0.948698 0.243068 2.86011 84 62 48
0.813774 0.262711 2.78395 126 98 91
0.81861 0.405444 3.41242 98 85 72
0.321478 0.391266 1.97461 84 84 62
0.210535 0.57475 2.81435 47 18 14
0.79659 0.518514 3.24885 63 41 36
0.333928 0.507486 1.97691 72 66 48
0.668183 0.694936 3.04266 84 44 43
0.393916 -0.93401 3.55804 86 96 50
0.548916 -0.13649 2.85801 60 62 46
0.42051 -0.13615 3.4616 154 123 82
0.732919 -0.00553013 3.15679 30 22 12
0.834368 0.768194 3.1803 106 86 69
0.968448 -0.471636 2.77041 53 64 38
0.868896 0.338063 3.10835 74 54 44
1.09738 -0.586629 2.77312 73 78 45
0.385432 -0.44337 3.19611 82 88 57
0.253949 -0.0909207 2.49799 106 106 74
0.591005 0.01078 3.16481 40 34 20
0.368419 0.177783 2.17914 68 81 44
0.647717 -0.226602 2.94599 86 96 72
0.995047 -0.182605 3.25769 140 146 110
-0.0355783 0.10401 2.10419 50 55 34
1.43556 -0.832354 2.6778 64 74 28
0.846433 0.259353 2.53965 108 96 80
0.361663 0.572067 1.8497 66 60 34
0.189439 -0.416399 2.58383 100 102 50
0.205056 -0.385072 2.63305 112 111 57
0.378094 -0.124155 2.68085 56 56 27
0.306285 0.00515176 2.4934 74 79 45
0.863599 -0.0767745 3.10029 118 99 68
0.371222 0.0202726 2.34965 88 96 61
0.368608 0.0370568 2.33544 78 86 52
0.192261 0.213224 2.65524 56 30 16
0.731572 0.801654 3.45182 108 89 80
0.596902 0.874864 3.13036 66 24 20
0.649662 -0.434414 2.30441 84 84 73
0.578074 -0.124467 3.51119 83 64 40
0.974275 -0.119584 3.05252 138 98 74
0.446058 0.177046 2.67038 44 33 26
0.307472 0.607291 1.85544 108 96 76
-0.166248 -0.439055 2.65432 93 88 56
0.249978 -0.139375 2.58896 149 146 104
-0.260186 -1.0485 3.27796 114 112 72
1.34243 -0.675179 2.55731 79 82 47
0.923307 -0.420947 1.90415 61 67 48
0.124584 -0.155659 2.77899 93 93 58
0.0752035 -0.218488 3.5272 126 128 82
0.306285 -0.0535113 3.3673 34 24 18
0.229576 0.0271067 2.40434 62 66 29
0.374348 0.167137 2.60961 16 14 8
0.775129 0.144428 3.03282 59 30 10
0.462427 0.275448 2.63213 55 25 14
0.761785 0.259895 3.54315 90 80 65
0.728623 0.30695 3.04663 84 64 60
0.846073 0.272076 2.54853 69 60 32
0.567943 0.412337 3.42762 56 27 22
0.975499 0.58818 2.46575 94 49 22
0.323755 0.598269 1.85113 91 80 53
0.280256 0.407587 2.63314 75 34 24
0.301601 0.440774 1.93005 88 89 65
0.587832 -0.800185 3.10309 68 74 38
0.00152367 0.0614871 2.14932 98 96 59
1.63393 0.0132226 5.19203 147 160 110
-0.214567 0.288208 1.91333 76 70 50
1.46138 -0.885946 2.67315 110 118 73
0.882531 -0.446415 1.97847 93 100 74
0.946914 -0.439196 1.74011 104 107 64
0.80007 -0.394219 2.01779 76 74 62
0.141401 -0.247119 2.8906 46 56 21
-0.094864 0.0574117 2.86045 72 68 49
-0.129713 0.197909 2.0117 72 72 46
1.46411 -0.203971 5.14197 154 166 114
-0.13171 0.195351 2.73931 139 104 78
