ply
format ascii 1.0
element vertex 245
property float x
property float y
property float z
property uchar red
property uchar green
property uchar blue
end_header
-1.07367 -0.157321 4.13777 0 255 0
-0.411754 -0.289251 3.96015 0 255 0
-1.91973 -0.38147 4.41394 0 255 0
-1.86292 -0.716457 4.1859 0 255 0
-1.31268 -0.214108 3.98076 0 255 0
-0.185915 -0.323309 3.74226 0 255 0
0.0517945 -0.36181 3.67091 0 255 0
-0.263462 -0.404784 3.55432 0 255 0
-0.993572 -0.436512 4.15916 0 255 0
-2.62581 0.176494 8.01503 24 19 34
-2.63074 0.219058 8.03086 22 16 32
-2.63539 0.929491 8.24934 122 20 20
-2.55541 0.0664025 8.05481 116 12 13
-2.65418 0.688328 8.36908 141 79 28
-2.50607 -0.0381689 8.06984 149 104 42
-2.53738 0.381371 8.20154 122 18 18
-2.6134 -0.543377 8.93931 92 50 22
-2.59442 -0.579835 8.92023 200 148 116
-2.57948 -0.707395 8.92835 170 114 86
-2.56842 -0.530431 8.95862 36 12 6
-2.54335 -0.48179 8.96221 174 116 96
-2.55017 -0.39804 9.02969 156 127 111
-2.42246 -1.09517 8.66397 161 114 88
-2.43319 -1.10165 8.69373 161 114 88
-2.51949 -0.419107 8.99027 44 12 6
-2.47959 -0.602555 8.90283 108 63 40
-2.47959 -0.602555 8.90283 108 63 40
-2.46577 -0.963581 8.88093 50 24 16
-2.3859 -1.13511 8.66052 162 113 88
-2.47976 -0.398946 8.99416 148 96 76
-2.35469 -0.912165 8.70668 28 6 5
-2.41756 -0.576611 8.93564 37 9 5
-2.39725 -0.493026 8.91687 36 6 3
-2.41953 0.482598 9.11327 208 156 126
-2.30309 -0.99073 8.71156 167 109 88
-2.33243 -0.796351 8.8451 27 8 6
-2.28665 -1.09323 8.70053 51 22 12
-2.28627 -1.11774 8.69414 44 23 14
-2.39984 0.33604 9.15973 190 144 120
-2.2573 -0.963371 8.72474 50 7 2
-2.25263 -0.960463 8.70971 50 7 2
-2.30296 -0.774723 8.92891 198 138 109
-2.22445 -0.999848 8.73424 76 26 11
-2.25038 -0.553797 8.84217 172 126 102
-2.19601 -1.03385 8.73976 180 120 98
-2.18826 -1.13728 8.78746 160 108 80
-2.17963 -1.08341 8.79229 40 8 0
-2.18045 -1.0837 8.79438 40 8 0
-2.17818 -0.853587 8.84426 128 73 52
-2.14505 -0.991475 8.7514 185 126 106
-2.15589 -1.08615 8.81954 163 110 88
-2.17393 -1.18158 8.91525 32 20 6
-2.11062 -0.506639 8.76278 104 58 32
-2.14546 -0.669188 8.9201 110 65 42
-2.13716 -0.86719 8.98141 46 16 8
-2.13736 -0.867017 8.98208 46 16 8
-2.1393 -0.870548 8.98776 46 16 8
-2.09196 0.391897 9.0534 88 42 22
-1.89327 0.452734 9.12388 149 101 79
-1.71155 -0.358571 8.57626 59 17 12
-1.77091 0.417689 9.14346 70 30 20
-1.68522 -0.291043 8.66003 138 92 79
-1.67666 -0.348078 8.63536 68 22 8
-1.67515 -0.315707 8.65405 57 13 2
-1.64068 -0.150292 9.35682 61 20 12
-1.58038 0.475737 9.22759 164 135 127
-1.49818 -0.384749 8.6778 175 116 98
-1.45731 -0.438835 8.69662 170 118 101
-1.45055 -0.473956 8.72989 74 29 10
-1.4267 -0.472667 8.76094 146 100 84
-1.46023 -1.24819 9.23739 42 18 7
-1.43379 -1.31858 9.16257 53 24 11
-1.43082 -0.900349 9.25897 100 68 28
-1.36207 -1.14174 9.02419 100 26 8
-1.37255 -1.04056 9.26599 154 133 92
-1.33706 -0.396659 8.89423 67 18 6
-1.34248 -1.31405 9.10612 180 122 96
-1.33483 -1.02071 9.27493 77 28 16
-1.32005 0.328216 9.31699 116 64 33
-1.26512 -1.38981 9.04756 114 79 64
-1.26516 -1.38955 9.04784 114 79 64
-1.2608 0.278665 9.25299 187 138 116
-1.24648 0.338376 9.2889 114 60 30
-1.24665 0.338297 9.29218 114 60 30
-1.23798 -1.29239 9.02441 159 102 81
-1.17953 -1.00885 9.18969 141 90 66
-1.17157 -1.35488 9.02869 108 68 48
-1.1712 -1.31251 9.03312 36 14 9
-1.14696 -0.981078 9.16127 84 38 18
-1.13334 -1.29751 9.04405 124 81 60
-1.13371 -1.29763 9.0472 124 81 60
-1.07979 -0.953163 9.17158 116 66 50
-1.02532 -0.574359 9.18683 76 30 20
-1.02532 -0.574359 9.18683 76 30 20
-1.00541 -0.731864 9.14451 46 13 6
-0.972043 -0.670648 9.18186 179 126 100
-0.948833 -0.901468 9.17884 151 98 81
-0.945252 -0.783745 9.21781 176 126 105
-0.945746 -0.785057 9.22421 176 126 105
-0.921163 -0.987045 9.19377 22 10 4
-0.902155 -1.12105 9.29037 146 141 90
-0.888874 0.444202 8.59305 110 82 72
-0.871319 0.43076 8.62176 162 134 122
-0.834713 0.388895 8.60825 143 119 110
-0.611026 0.741392 8.59864 173 148 142
-0.605305 0.705327 8.60234 222 197 190
-0.630872 0.192323 8.31376 46 4 1
-0.601997 0.395474 8.31054 198 172 162
-0.551851 0.468565 8.2777 30 10 3
-0.515598 0.432629 8.29872 86 77 74
-0.495652 0.389579 8.30829 146 120 113
-0.483716 0.292116 8.21544 88 82 68
-0.419088 0.272062 8.20273 47 14 7
-0.381002 0.293158 8.22123 90 87 70
-0.293822 0.473193 8.28414 30 16 6
-0.209465 0.599841 8.45486 158 28 28
-0.228679 0.403914 8.33881 158 127 124
0.638928 -0.732933 8.96403 56 22 4
0.583405 -1.68059 8.83658 106 68 30
0.66677 -0.70232 8.94229 58 26 12
0.667653 -0.703881 8.94751 58 26 12
0.63032 -1.26708 8.57527 85 77 67
0.644436 -1.24814 8.51174 153 132 120
0.65172 -1.174 8.48401 157 132 119
0.883828 0.186334 8.89529 119 78 64
0.644263 -1.36859 8.35947 108 65 30
0.689857 -1.21429 8.43899 104 77 66
0.668709 -1.30762 8.34666 148 123 110
0.736422 -1.1184 8.38303 157 127 116
1.00232 -0.135197 8.96078 123 100 89
0.69779 -1.26886 8.31845 104 58 32
0.742035 -1.16468 8.38893 130 12 8
1.00744 -0.231891 8.93666 170 118 96
1.01262 0.422261 8.92326 172 145 140
0.72605 -1.24042 8.27461 154 122 108
1.01549 -0.180672 8.89204 163 135 120
1.02455 0.295723 8.87032 136 93 76
0.775481 -1.1404 8.34768 113 20 20
1.03194 -0.231163 8.88923 174 135 114
0.77624 -1.1184 8.34265 35 10 8
1.05622 -0.223018 8.8873 163 130 107
0.774196 -1.22551 8.25037 103 52 26
0.806751 -1.12058 8.32332 150 120 112
0.810647 -1.15048 8.27907 139 18 16
1.08171 0.0262671 8.82029 164 133 120
1.09855 -0.941106 8.86858 88 78 61
0.803217 -1.24823 8.22709 164 140 132
1.07836 -0.367882 8.76208 176 138 114
1.07029 -0.40671 8.71618 58 14 2
0.812356 -1.27854 8.18631 112 62 34
1.13475 0.0537859 8.78005 101 56 26
1.10047 -0.402622 8.69515 182 136 116
1.12174 -0.540259 8.71188 14 13 14
1.11284 -0.454992 8.67516 177 149 132
1.18918 -0.205951 8.79722 51 32 20
1.19568 -0.18122 8.79707 176 154 142
1.1483 -0.403203 8.66697 70 32 20
1.16007 -0.472343 8.69121 92 65 62
1.13754 -0.685898 8.59448 170 71 38
1.13142 -0.763166 8.58053 184 94 69
1.18629 -0.581993 8.66875 16 13 15
1.25478 0.175297 8.76617 116 71 51
1.20774 -0.398472 8.68937 78 40 26
1.19669 -0.449461 8.66384 46 16 10
1.15535 -0.71924 8.56234 126 28 4
1.24975 -0.641598 8.64556 26 14 12
1.26129 -0.470552 8.66402 98 73 75
1.34975 0.180115 8.79003 182 162 158
1.27633 -0.646271 8.65422 126 77 58
1.21232 -1.82638 8.49284 220 170 146
1.19432 -1.74518 8.44835 129 16 14
1.34421 -0.451937 8.66787 60 26 22
1.25875 -1.82956 8.50515 178 127 102
1.46867 0.236438 8.78564 144 110 94
1.29833 -1.72718 8.4645 18 12 12
1.5049 0.183311 8.78272 190 156 138
1.53976 0.191104 8.79751 155 78 54
1.62777 -0.617221 8.65761 62 41 19
1.37392 -1.08434 8.17102 134 28 22
-1.23319 -1.16642 9.13616 178 104 81
-1.23319 -1.16642 9.13616 178 104 81
-0.475782 0.311451 8.2197 53 40 26
-2.60729 0.585562 8.41594 115 24 17
-2.39826 0.334561 9.1571 193 145 122
-1.86745 0.150157 9.14006 158 116 103
-1.30373 -0.559107 8.84836 108 65 40
-2.58358 -0.647603 8.94885 30 10 4
-1.50269 -0.355254 8.69769 71 20 9
-1.49111 -0.421231 8.68692 74 25 16
0.720494 -0.761461 8.95084 72 49 36
1.13404 0.446555 8.87254 28 18 18
1.13403 0.446569 8.87289 28 18 18
1.16223 -0.400863 8.79616 130 82 65
1.34488 -0.452187 8.67055 52 22 16
-2.36501 -1.17282 8.66753 112 74 54
-1.79387 -0.490519 8.5854 222 171 131
-2.35418 -1.06103 8.68776 46 20 14
-2.33132 -1.1604 8.65376 98 66 51
-2.32816 -1.02759 8.68552 56 18 12
-2.19087 -1.10733 8.78421 166 114 93
-1.1123 -1.06309 9.1458 28 7 3
-0.891124 -0.708303 9.19338 29 10 6
-0.836572 -0.710305 9.18301 92 52 27
-0.463831 0.346687 8.54159 116 50 42
1.02998 0.370055 8.88213 108 34 32
1.04296 0.427364 8.90636 30 14 10
1.06641 0.391053 8.84939 122 26 26
1.22511 -0.146319 8.85117 22 20 17
1.22394 -0.147053 8.84552 22 20 17
-2.57929 0.447551 8.34589 162 137 122
-2.60409 0.660608 8.45185 115 19 19
-2.43324 -1.04568 8.64192 169 122 95
-2.46349 -0.905877 8.72825 122 80 58
-2.08329 -0.51772 8.80459 100 54 30
-1.97733 -0.242724 8.68697 90 38 16
-2.04216 -0.793527 9.03235 92 56 28
-1.79259 -0.490475 8.58043 220 168 124
-1.69862 -0.325722 8.59582 164 114 98
-1.40195 -0.456364 8.7993 95 46 30
-1.45584 0.150026 9.33826 188 140 116
-1.3284 -0.519568 8.84596 160 108 81
-1.20602 -1.41817 9.02497 94 63 46
-0.851369 0.375057 8.61574 88 65 54
-0.293744 0.473984 8.28858 32 16 8
1.04287 0.427397 8.90582 28 14 14
0.990906 -1.80891 8.59758 156 152 96
1.10875 -0.867808 8.57685 182 136 125
1.1831 -0.443392 8.67002 168 123 110
1.22838 0.194666 8.77575 168 130 116
1.23179 0.166533 8.77428 105 60 34
1.18812 -0.581394 8.67197 17 14 17
1.19826 -0.412585 8.67054 134 92 79
1.21768 -0.420562 8.66537 26 10 4
1.14872 -1.73861 8.48348 132 6 8
1.42558 -0.411776 8.6998 194 163 143
1.31632 -1.9025 8.4439 118 84 51
1.52775 0.249952 8.81151 188 162 146
1.45908 -1.03792 8.23079 114 98 86
1.45745 -1.0373 8.22777 114 98 86
-2.7955 0.722526 8.35087 96 20 14
-2.61812 -0.153769 8.03239 166 146 128
-2.63715 -0.127364 8.0989 84 24 10
-2.49437 -0.136775 8.17518 162 143 118
-2.39684 -0.0857388 8.22982 157 107 45
-2.57977 0.0844821 8.93905 157 139 118
