ply
format ascii 1.0
element vertex 124
property float x
property float y
property float z
property uchar red
property uchar green
property uchar blue
end_header
0.555623 -0.164983 4.18935 0 255 0
0.591504 -0.0497919 4.1437 0 255 0
0.77143 -0.0502058 4.11257 0 255 0
0.925648 -0.056449 4.08833 0 255 0
1.11817 -0.0576974 4.09041 0 255 0
1.31512 -0.0625058 4.10627 0 255 0
1.49424 -0.0673695 4.15511 0 255 0
1.62951 -0.0897862 4.2174 0 255 0
1.78881 -0.101452 4.31993 0 255 0
1.82954 -0.105283 4.34967 0 255 0
1.78055 0.0146706 4.34207 0 255 0
1.64989 0.0414538 4.32001 0 255 0
1.46736 0.0430006 4.23964 0 255 0
1.29906 0.0465603 4.14387 0 255 0
1.04914 0.0577885 4.0355 0 255 0
0.181298 -0.651223 5.66079 158 148 106
0.204509 -0.643119 5.66772 160 160 114
0.384404 -0.802792 6.1671 168 169 114
0.248455 -0.606998 5.67821 142 141 100
0.487623 -0.718113 6.06508 174 172 138
0.510251 -0.693992 6.04926 172 173 133
0.273816 -0.588245 5.68998 160 160 113
0.533376 -0.668641 6.03424 154 157 125
0.286772 -0.549506 5.67528 114 110 86
0.557024 -0.639754 6.01525 160 164 122
0.304562 -0.545878 5.70028 147 142 126
0.29557 -0.537389 5.68428 150 144 117
0.547107 -0.616466 5.98981 148 153 118
1.3368 -0.554177 5.74333 140 139 100
0.586664 -0.606044 6.00173 172 174 140
1.32371 -0.537459 5.76146 148 144 110
1.30044 -0.533192 5.76348 130 128 87
0.617515 -0.566574 5.98289 160 164 124
0.384375 -0.508793 5.74565 160 158 119
0.594798 -0.545379 5.94827 148 156 120
0.647601 -0.528027 5.96404 151 158 115
0.382879 -0.472274 5.71076 140 138 116
0.362106 -0.469637 5.71863 126 122 88
0.445241 -0.462436 5.77246 161 160 120
0.685041 -0.484077 5.90729 182 188 147
0.899951 -0.464607 5.88208 186 196 154
0.477021 -0.435446 5.78703 179 178 143
0.464967 -0.417804 5.75065 140 140 121
0.509476 -0.409623 5.80579 162 162 128
0.540046 -0.383819 5.82044 164 164 130
0.523578 -0.365997 5.77852 136 134 112
0.501975 -0.349564 5.73418 144 142 118
0.743872 -0.366545 5.91758 151 154 112
0.563611 -0.328346 5.79991 136 135 114
0.527269 -0.321553 5.75188 170 168 146
0.574872 -0.318813 5.80194 137 136 114
0.795696 -0.333684 5.91009 182 182 142
0.874681 -0.318066 5.88677 142 150 110
0.766126 -0.31727 5.8856 180 186 142
1.17824 -0.323521 5.98587 199 193 151
0.600628 -0.296465 5.81783 147 146 123
0.556092 -0.290866 5.75813 141 142 118
0.625823 -0.289191 5.83133 141 140 112
0.611703 -0.287292 5.81874 136 136 110
0.631418 -0.271319 5.82642 151 152 122
0.694007 -0.263588 5.88064 139 142 100
0.648355 -0.25948 5.83646 139 139 108
0.315594 -0.262715 5.94893 124 120 78
1.07804 -0.246146 6.05869 176 173 135
0.524325 -0.228022 5.94939 122 124 84
0.453664 -0.222828 5.91965 122 110 82
1.04757 -0.218872 6.04373 156 150 114
0.710207 -0.204458 5.76647 127 126 84
0.470718 -0.216503 5.89964 81 74 48
0.556673 -0.209357 5.96221 141 144 104
0.505321 -0.20769 5.89772 114 114 90
0.669016 -0.179919 6.15113 92 67 46
0.730645 -0.1625 5.66276 154 155 114
0.489742 -0.161123 5.84356 173 139 112
0.770622 -0.158952 5.66852 148 153 106
0.512573 -0.149971 6.07148 196 174 141
0.49513 -0.138398 6.09974 110 72 45
1.12751 -0.122995 5.95791 184 176 140
0.76982 -0.122255 5.60308 140 150 106
1.06841 -0.107084 6.04399 122 92 66
1.0947 -0.098001 5.87081 183 168 144
1.01539 -0.0687781 6.0412 52 27 18
1.08402 -0.0613247 5.903 108 79 58
1.06567 -0.0472805 5.88866 104 72 44
1.07049 -0.00165659 5.80104 215 186 172
1.05152 0.0119133 5.71908 160 150 134
0.929642 0.00828136 5.76163 72 62 44
0.838731 0.0280855 5.67928 115 82 74
0.589291 0.0422265 5.75053 198 156 133
0.960381 0.0558329 5.72876 192 159 148
0.592429 0.0821185 5.89416 91 52 36
0.541546 0.102044 5.9765 96 61 40
1.07024 0.0626488 5.63746 103 106 80
1.11094 0.0776884 5.61113 139 136 104
0.928021 0.105835 5.76929 94 56 52
0.87968 0.100588 5.74905 94 62 59
0.852457 0.102515 5.73045 74 45 41
0.888376 0.135846 5.78568 99 60 57
1.09986 0.124665 5.59167 140 136 123
0.630847 0.282278 6.0283 108 67 53
0.934789 0.256637 5.88462 114 74 74
1.12914 0.218767 5.64407 134 96 74
0.755686 0.153939 5.35994 162 161 151
0.610366 0.354024 6.06936 89 57 46
1.41316 -0.713599 5.65993 135 134 94
1.38909 -0.599431 5.68169 145 149 116
0.353293 -0.531268 5.72785 151 148 102
1.15002 -0.258226 6.00031 110 102 70
0.247542 -0.241946 5.9479 141 120 68
1.17695 -0.225341 5.94309 198 190 154
1.12047 -0.221101 5.96293 118 116 82
1.16938 -0.206966 5.94626 194 174 147
0.442093 -0.208227 5.92186 182 174 129
0.767218 -0.104209 5.58548 122 132 90
0.929099 -0.0720333 5.99204 67 67 49
1.06483 -0.0654237 5.92022 96 69 50
1.09661 -0.0534703 5.87907 189 149 132
0.695998 -0.0258432 5.98262 32 26 21
1.03978 -0.0159843 5.80612 140 114 100
0.758904 -0.0266644 5.50888 118 124 88
0.98017 0.0313575 5.70511 130 120 105
0.86023 0.0383214 5.66324 68 32 21
0.963209 0.0728949 5.75027 108 75 72
1.02479 0.15182 5.92015 84 52 48
