ply
format ascii 1.0
element vertex 631
property float x
property float y
property float z
property uchar red
property uchar green
property uchar blue
end_header
0.662225 0.105834 -0.390909 0 255 0
0.684012 0.255852 -0.459976 0 255 0
0.925551 0.288095 -0.537536 0 255 0
1.11838 0.281979 -0.607139 0 255 0
1.38436 0.288712 -0.655165 0 255 0
1.63706 0.29596 -0.686147 0 255 0
1.8982 0.289727 -0.677894 0 255 0
2.10326 0.272472 -0.624442 0 255 0
2.34941 0.246548 -0.52517 0 255 0
2.43768 0.220133 -0.485692 0 255 0
2.34973 0.395553 -0.501301 0 255 0
2.14475 0.45095 -0.496612 0 255 0
1.87962 0.431409 -0.55841 0 255 0
1.61381 0.441723 -0.640188 0 255 0
0.57113 0.924819 -0.601846 0 255 0
0.616033 -0.500168 1.69658 118 112 83
0.638027 -0.47417 1.63996 170 164 148
0.677776 -0.470619 1.67814 166 162 144
0.683495 -0.38522 1.70329 224 223 174
0.666152 -0.0746263 2.05538 95 84 58
0.703588 -0.0934499 2.04921 128 124 84
0.717816 -0.407703 1.65256 118 117 96
0.728061 -0.375253 1.69478 110 106 74
0.740589 -0.388661 1.66154 118 115 92
0.742835 -0.3722 1.66801 160 156 133
0.753639 -0.400779 1.70942 166 163 138
0.759034 -0.413392 1.72693 107 104 79
0.755639 -0.380613 1.676 116 117 90
0.773523 -0.328434 1.67414 154 150 122
0.784008 -0.405103 1.73932 128 127 92
0.708146 0.433122 1.06543 119 122 110
0.79002 -0.0989427 2.07068 218 220 173
0.810824 -0.394738 1.75472 144 144 103
0.818152 -0.284462 1.67631 164 160 135
0.869768 -0.331463 1.78012 117 118 94
0.865157 -0.294918 1.71588 156 155 134
0.875789 0.0151688 2.02674 180 145 100
0.867162 -0.243675 1.69578 156 153 128
0.89177 0.00167286 1.99796 80 72 47
0.882692 0.08102 1.85773 180 132 102
0.885925 0.101163 1.81489 172 123 94
0.895943 0.0637784 1.86291 152 110 80
0.914778 -0.191431 1.68445 178 178 150
1.03042 -0.749033 2.21058 220 222 172
0.940357 -0.180703 1.74438 116 114 94
1.0246 -0.653879 2.16615 166 164 130
1.02766 0.124725 2.29265 175 136 104
1.04748 0.137861 2.34564 86 48 23
1.06897 -0.568105 2.10447 114 120 80
1.01454 0.558108 2.14357 64 28 13
1.02178 0.599099 2.20656 66 34 16
0.995338 -0.105036 1.71873 180 177 156
1.02146 0.618044 2.1522 202 192 169
1.03039 -0.232234 1.84073 225 230 182
1.09415 -0.559237 2.06262 179 179 149
1.10073 -0.570236 2.10075 179 179 149
1.0378 -0.146688 1.78777 166 166 145
1.13032 -0.583645 2.13554 127 134 101
1.08612 0.771385 2.28687 100 58 40
1.0871 0.813883 2.28841 186 172 146
1.11538 -0.443594 2.01752 106 118 74
1.03734 0.445621 1.8147 85 47 31
1.04196 0.34285 1.76844 236 231 239
1.04196 0.34285 1.76844 236 231 239
1.05032 0.351103 1.78069 74 54 40
1.09631 -0.163524 1.85172 231 233 189
1.11315 -0.343274 1.86491 120 129 84
1.11724 -0.162463 1.86766 228 234 188
1.09848 0.557497 1.88964 58 22 12
1.12094 0.722918 2.023 166 136 128
1.19512 0.952215 2.24977 104 66 58
1.10906 0.444885 1.69625 200 161 146
1.11419 0.43032 1.70197 134 88 67
1.17265 -0.06778 1.83562 120 118 82
1.19102 0.923934 2.16107 74 30 18
1.07065 -0.310243 1.30234 218 222 175
1.11333 0.455532 1.68645 103 58 42
1.22356 -0.274759 1.90293 176 183 145
1.23361 -0.0505079 1.90608 118 120 81
1.13038 -0.213155 1.36446 143 148 102
1.16876 0.469768 1.6595 58 22 10
1.2265 0.0928401 1.75218 171 174 151
1.18226 0.471842 1.655 176 154 150
1.18908 0.475668 1.6816 176 154 150
1.17758 0.454951 1.63339 192 155 136
1.1899 0.513633 1.67973 158 142 138
1.17634 0.434401 1.60977 142 102 80
1.21831 0.624711 1.78071 156 134 132
1.2022 0.411517 1.66374 90 64 56
1.22353 0.612972 1.78173 122 76 68
1.22353 0.612972 1.78173 122 76 68
1.24645 0.728616 1.87617 174 156 158
1.2359 0.634326 1.81308 51 21 16
1.22068 0.581085 1.73179 35 17 14
1.26956 0.820325 1.94912 168 145 146
1.26956 0.820325 1.94912 168 145 146
1.30153 0.921986 2.05412 158 140 141
1.28815 -0.0844106 1.6812 124 132 80
1.25662 0.507945 1.63667 198 156 152
1.36097 -0.103017 1.84464 226 232 192
1.36497 -0.0878044 1.8196 171 168 126
1.19015 0.332779 1.23111 132 138 105
1.21852 0.317622 1.30951 140 147 112
1.46477 -0.311865 1.88994 80 92 50
1.59782 0.206448 2.09447 39 21 10
1.41069 0.511205 1.61502 52 24 22
1.63223 0.185098 2.07252 101 91 70
1.49013 0.684191 1.76132 167 126 126
1.55049 0.747079 1.83694 68 36 35
1.51392 0.386587 1.65345 32 22 14
1.57296 0.741076 1.83411 85 54 53
1.56651 0.616929 1.74028 178 150 149
1.56292 0.59994 1.73039 158 126 124
1.5578 0.575111 1.71265 62 39 34
1.56064 0.517406 1.67507 50 25 18
1.5488 0.505261 1.64143 114 78 74
1.68984 0.756537 1.9777 84 48 44
1.72014 0.201295 1.95509 98 91 72
1.59123 0.511251 1.67654 48 22 15
1.54648 0.449116 1.57018 212 182 174
1.60753 0.31495 1.66813 36 20 6
1.72206 0.697305 1.93135 120 96 90
1.72007 0.664872 1.91774 60 36 30
1.74166 0.718222 1.96573 225 214 206
1.91377 0.00591279 2.2142 115 102 66
1.82661 -0.744206 1.90355 224 224 182
1.86192 0.217339 2.08466 94 68 47
1.83533 0.157528 2.01613 213 226 188
1.84171 -0.743958 1.91386 144 148 110
1.84202 -0.742997 1.9155 144 148 110
1.85878 0.246981 2.0277 78 44 20
1.74238 0.515389 1.79762 150 123 118
1.75196 0.538683 1.81697 230 223 214
1.79002 0.320572 1.81169 213 173 154
1.76612 0.358781 1.76713 82 54 36
1.90204 -0.021576 1.97997 221 230 194
1.786 0.340125 1.77059 201 168 143
1.91368 0.0864672 1.94415 223 234 192
1.82021 0.301869 1.78195 189 146 126
1.6802 0.402898 1.51743 70 78 44
1.97777 0.0482239 2.01359 232 235 197
1.93619 0.0257188 1.90087 125 94 61
1.85452 0.142269 1.76265 225 231 194
1.90791 0.0783533 1.83093 150 126 94
1.92819 0.0520725 1.85622 151 119 87
1.93994 0.0403389 1.86096 136 104 67
1.68994 0.406912 1.45436 230 226 216
1.90912 0.113347 1.80111 174 139 114
1.99415 -0.10523 1.91745 225 223 183
1.91211 0.149199 1.77637 194 166 147
1.93067 0.0948378 1.7982 171 132 105
1.7293 0.442413 1.44271 233 228 217
1.77924 0.705427 1.4386 228 214 205
1.97148 -0.348367 1.56402 224 226 184
1.78101 0.630915 1.34963 159 136 98
1.79189 0.580757 1.35897 130 118 84
1.80573 0.688123 1.38665 228 216 214
1.80456 0.682325 1.36355 222 216 212
1.81234 0.680189 1.34395 140 92 68
1.85042 0.677026 1.39268 177 139 112
2.12694 -0.413205 1.482 223 222 184
0.992144 -0.255097 1.81932 204 206 156
1.12419 -0.126434 1.881 98 101 72
1.73005 0.429786 1.48338 207 202 192
1.75651 0.485487 1.40852 209 204 191
1.77759 0.692198 1.44775 204 190 180
2.26045 -0.618524 1.40924 192 192 146
0.71404 -0.0574581 1.90987 76 71 42
0.705936 -0.0637636 1.96519 76 71 42
1.13715 -0.0624644 1.8192 130 129 103
1.1381 -0.0633306 1.8254 130 129 103
1.42854 -0.054059 1.7661 48 54 29
2.18256 -0.397319 1.49807 191 194 146
2.17708 -0.428437 1.4619 65 71 37
2.17708 -0.428437 1.4619 65 71 37
2.06276 -0.378001 1.56042 82 80 48
1.72606 0.883694 2.41672 62 28 21
0.620313 -0.0775892 2.1352 106 92 51
0.620313 -0.0775892 2.1352 106 92 51
1.10032 0.457635 1.90513 179 138 112
0.619341 -0.501909 1.66414 148 145 126
0.666808 -0.0740126 2.05323 78 67 40
1.8629 0.278756 1.80606 134 140 104
1.86013 0.198375 1.73298 216 186 178
0.720133 -0.462707 1.72058 126 124 86
0.820187 0.266343 1.34029 116 116 70
1.0923 -0.0997757 1.80389 140 138 115
1.09258 -0.0996112 1.80386 140 138 115
1.59325 0.43781 1.59841 120 97 90
1.85724 0.184992 1.74448 129 86 67
1.00934 0.373071 1.77466 101 58 32
1.1206 -0.613975 2.10698 188 190 143
1.41411 0.460421 1.60219 106 70 60
2.17098 -0.445773 1.50921 190 193 142
1.70036 -1.84213 6.55665 186 193 145
1.1741 -0.0319165 1.82447 132 130 102
1.56696 -0.0659941 1.92638 101 102 67
0.575317 -0.57865 1.67098 169 170 115
0.634176 -0.530697 1.69071 167 166 114
0.647134 -0.520192 1.70492 166 166 116
0.679673 -0.473854 1.69253 102 104 84
0.887476 -0.348863 1.77845 165 166 112
1.04752 0.418215 1.8139 64 22 4
1.27438 0.815721 1.94138 78 28 18
1.21915 0.319047 1.30798 98 102 64
1.36088 0.490839 1.56491 79 36 24
1.39839 0.557626 1.67023 44 14 7
1.41167 0.664489 1.74818 124 102 96
1.39033 0.429857 1.60791 40 14 8
1.40892 0.609445 1.70689 122 101 94
1.48548 0.184871 1.94648 14 6 2
1.50293 0.914254 1.97307 112 71 75
1.56892 0.0383444 1.74021 112 115 102
1.56565 0.674267 1.78682 119 94 90
1.74569 0.0135195 2.20507 65 64 32
1.75615 0.0184939 2.20632 164 168 134
1.75615 0.0184939 2.20632 164 168 134
2.07614 -0.368961 1.46385 170 174 122
0.640529 -0.521761 1.69376 109 108 73
0.640529 -0.521761 1.69376 109 108 73
0.700513 -0.421234 1.68328 112 109 85
1.09311 -0.556091 2.04639 108 113 80
1.4194 0.795969 1.8501 118 95 92
1.39226 0.3923 1.52435 21 7 2
1.90007 -0.314528 1.6805 98 100 72
1.27431 0.472208 2.29157 146 100 77
0.598209 -0.530211 1.66166 44 50 28
0.72271 -0.404561 1.68798 110 104 85
1.2009 -0.490062 2.02894 155 160 110
1.23009 -0.390868 1.96418 68 82 38
1.23299 -0.0485361 1.89739 56 62 24
1.22956 0.42371 1.21426 114 117 96
1.30183 -0.239123 1.88728 73 85 38
1.28909 0.907614 2.02215 124 92 85
1.33116 0.618796 1.74016 32 4 1
1.36297 0.449332 1.57668 170 120 93
1.41467 0.715131 1.7894 107 65 58
1.41113 0.444369 1.5737 164 142 140
1.46892 0.990795 2.02599 142 106 102
1.52302 1.01236 2.05543 94 62 58
1.55131 0.912631 1.98267 124 98 96
1.55726 0.82499 1.90661 125 94 95
1.55156 0.746313 1.84316 44 16 9
1.56085 0.516279 1.67574 25 8 4
1.73438 0.0217206 2.20602 154 164 122
1.68628 0.817568 2.01951 44 14 8
1.71851 -0.0813099 1.71132 48 61 38
1.73767 0.357497 1.7249 136 112 99
1.78514 0.700734 1.45328 79 46 26
0.598347 -0.53034 1.66147 42 48 24
0.841484 -0.386277 1.75309 153 151 92
0.856563 -0.351028 1.75349 48 56 26
1.02145 -0.730517 2.19024 73 78 43
1.32192 0.485064 1.6236 89 34 14
1.3983 0.489462 1.60703 66 29 20
0.600378 -0.563435 1.65682 156 154 100
1.08516 0.0273388 1.7953 102 104 68
1.43996 0.506277 1.63676 44 17 12
1.57479 0.508282 1.67253 112 91 86
1.64008 -0.204071 1.58906 66 75 40
1.49139 0.984687 2.02507 71 28 19
1.65164 0.0206483 0.438306 154 158 106
1.22496 -0.121446 2.52354 62 69 40
1.88233 -0.241738 1.57519 88 92 69
1.84049 0.691471 2.23434 150 143 131
1.81091 -0.729674 1.89475 156 164 112
0.472191 -0.66082 1.66846 156 156 102
0.51248 0.262271 1.81497 87 86 34
0.566276 -0.573378 1.68476 50 54 23
0.601144 -0.558399 1.6599 156 154 100
0.630287 -0.477827 1.66371 73 68 45
0.64369 -0.471969 1.68097 46 48 24
0.90556 -0.201418 1.70474 75 72 43
0.914892 0.0968727 1.85255 79 54 30
0.936548 0.147731 1.82033 148 146 92
0.966933 0.369872 1.80256 95 50 22
0.988486 0.371358 1.81909 92 48 18
1.0601 -0.663435 2.12305 59 71 36
1.05578 -0.700657 2.16207 159 159 106
1.26137 0.428893 1.26845 170 118 91
1.22923 0.73372 1.89255 50 15 6
1.24298 0.641378 1.80418 16 8 6
1.24489 0.725403 1.86761 126 102 96
1.26676 0.816371 1.94074 125 95 88
1.38307 0.508447 1.61951 66 28 22
1.39873 0.611828 1.7096 46 14 6
1.40403 0.366968 1.5414 75 49 38
1.40745 0.554589 1.66673 116 96 90
1.41209 0.664366 1.74639 124 94 90
1.41079 0.366096 1.54303 40 14 2
1.41497 0.715058 1.78834 108 65 58
1.41447 0.391655 1.50626 92 60 47
1.42885 0.806628 1.86811 52 14 8
1.42534 0.421161 1.58706 38 14 10
1.49496 0.224136 2.00289 10 6 4
1.64644 0.0916824 2.24981 25 10 4
1.60126 0.497129 1.65374 58 28 26
1.66765 0.933667 2.14203 82 56 54
1.62505 0.323438 1.68786 56 50 34
1.71224 0.0295305 2.26699 142 160 117
1.61765 -0.105291 1.03268 76 78 64
1.7635 0.409041 1.71203 163 136 126
1.80406 0.330727 1.79029 80 35 8
1.8038 0.330281 1.78588 80 35 8
1.81661 -0.245062 1.68799 62 64 28
1.78381 0.699801 1.44425 86 52 30
2.00436 -0.356977 1.55974 160 164 113
2.25381 -0.554163 1.37209 64 72 42
0.57252 -0.513298 1.66821 149 148 95
0.646914 -0.436402 1.67728 146 146 88
0.665581 -0.479164 1.68683 105 102 88
1.24437 -0.239188 1.88375 102 110 74
2.26123 -0.564451 1.35944 152 158 110
0.668811 -0.505099 1.70835 156 155 100
0.636786 -0.516046 1.69151 94 92 74
0.72051 -0.414293 1.68761 45 42 22
1.06952 -0.287692 1.31619 154 156 107
1.4537 -0.0184123 0.754188 136 138 96
1.53071 -0.160827 1.4876 147 152 110
1.62068 0.4377 1.55908 34 32 12
0.57037 -0.579838 1.67412 162 162 110
0.7467 -0.348741 1.62556 148 146 98
0.946434 -0.023474 2.02536 44 46 23
1.0685 -0.299558 1.29244 66 71 20
1.0685 -0.299558 1.29244 66 71 20
0.97872 0.0796342 2.01155 79 46 20
1.01137 -0.226319 1.80934 74 78 49
1.03306 -0.0648437 1.72117 72 70 41
1.02877 -0.235964 1.84306 155 158 105
1.09451 0.0637343 1.79618 38 42 16
1.12214 -0.120471 1.85932 47 57 24
1.17311 -0.0771011 1.85997 47 56 21
1.2622 0.510322 1.65002 153 114 100
1.4142 0.965821 2.00184 76 28 13
1.41925 0.796672 1.85133 114 90 87
1.44562 0.989199 2.03024 138 93 79
1.46362 0.997202 2.02934 154 118 111
1.47678 0.191968 1.93238 71 74 64
1.56234 0.720048 1.82128 124 106 106
1.56695 0.414667 1.63213 38 14 4
1.65299 -0.0174073 1.72883 54 62 44
1.75435 0.0185944 2.20341 144 146 112
1.75286 0.346513 1.75958 118 82 59
1.84811 0.139671 1.95413 146 153 117
1.95808 -0.0143336 1.93384 154 162 118
1.77341 -0.0447734 0.626924 159 166 114
0.77183 -0.422833 1.72657 68 67 36
0.777097 -0.42367 1.73887 144 144 100
0.942863 0.260169 1.76101 74 44 27
1.02706 -0.32619 1.46887 143 147 98
1.01311 -0.236135 1.83242 152 154 108
1.31347 0.170436 1.87237 32 12 4
1.36481 0.450609 1.56479 165 116 90
1.57372 0.446582 1.60484 68 31 19
1.58546 0.956875 2.06825 68 32 32
1.63012 0.55299 1.75185 26 3 2
1.65507 0.828427 1.98994 53 26 22
1.71729 0.358026 1.73292 52 26 14
1.84044 0.0160315 1.98589 140 155 113
1.96462 -0.0193421 1.91821 145 162 116
2.11092 -0.381921 1.52434 69 66 40
1.1419 -0.0597239 1.80415 83 85 58
1.33062 0.483223 1.5813 87 33 14
1.30115 0.906556 2.00715 62 22 14
1.36032 0.233061 1.79474 63 68 53
1.5538 0.68104 1.79222 49 16 10
1.55885 0.810895 1.89323 125 98 98
1.56889 0.611768 1.73926 120 102 98
1.95631 0.432455 2.24361 151 150 139
1.1624 -0.551705 2.06829 152 152 100
1.31813 0.231887 1.8866 54 58 44
0.994342 -0.0147475 1.59637 150 147 90
0.729188 -0.408476 1.69759 44 48 24
1.02382 -0.21633 1.80556 70 73 38
1.45032 0.985052 2.01061 139 94 83
0.755871 -0.413094 1.72363 39 42 16
1.0832 0.712977 1.01503 156 146 132
1.14923 -0.234235 1.42345 73 79 30
1.17327 -0.0906109 1.87687 52 60 24
1.59525 0.427768 1.60175 133 107 96
1.6551 0.828116 1.98738 54 24 22
0.873718 0.16546 1.78418 146 141 78
0.89697 0.0972311 1.86764 92 64 40
0.908642 0.0442577 2.08678 51 32 15
1.20767 0.411974 1.6572 43 17 7
1.08858 -0.425668 1.98731 152 152 100
1.16575 -0.551951 2.05925 151 154 100
1.41374 0.428823 1.60844 44 17 6
1.41612 0.556992 1.66878 45 16 12
1.40935 0.805696 1.85262 56 12 4
1.41851 0.798287 1.85857 120 94 90
1.41887 0.797876 1.85814 120 94 90
1.43605 0.89484 1.93145 58 19 12
1.46676 0.393948 1.53828 20 10 6
1.47985 0.369214 1.641 16 8 6
1.5241 0.965131 2.07759 56 20 17
1.55862 0.677115 1.77345 45 16 10
1.5709 0.443634 1.53002 146 102 80
1.55978 0.411259 1.61063 44 18 6
1.56383 0.735142 1.82596 120 102 100
1.56732 0.671941 1.78038 124 98 94
1.57557 0.613526 1.75972 39 17 13
1.58315 0.565151 1.71592 27 10 6
1.62033 0.429231 1.51881 31 32 12
1.71807 0.91627 2.22084 76 48 42
1.67279 -0.0331423 1.70425 45 52 38
1.7134 0.371464 1.70704 120 89 72
1.74125 0.473913 1.76625 118 100 98
1.74684 0.478017 1.78559 32 11 7
1.75159 0.0163567 2.22852 133 136 105
1.75159 0.0163567 2.22852 133 136 105
1.80503 0.332869 1.77862 93 50 22
1.81074 0.377784 1.7542 54 22 11
1.93113 -0.00234616 1.95568 40 32 5
1.94747 -0.294079 1.58278 42 54 28
2.12625 -0.392624 1.49931 64 62 32
2.15109 -0.414521 1.47191 154 162 110
1.18629 0.408473 1.23361 60 65 31
1.4867 0.977715 1.98614 128 91 84
1.56358 0.735445 1.82621 116 100 95
1.57367 0.715481 1.8181 48 20 16
0.182881 0.248892 2.08452 94 92 42
0.675967 -0.475345 1.70068 80 81 60
1.31596 0.169652 1.84303 27 22 10
1.40603 0.429598 1.60356 94 65 52
1.41218 0.461032 1.61292 68 29 11
1.55889 0.811832 1.89103 116 96 90
1.56441 0.720089 1.81643 118 100 96
1.61885 0.448306 1.50365 157 122 106
1.67848 0.907166 2.11222 132 112 113
1.6877 0.814685 2.01658 37 14 12
1.70663 0.806063 2.03163 38 8 4
1.73622 0.34535 1.72981 32 12 6
1.76359 0.410022 1.69928 150 123 115
-0.724461 0.241695 3.68309 95 94 40
1.08938 -0.100698 1.80927 85 84 60
1.26421 0.510275 1.64905 162 114 100
1.27867 0.81687 1.93062 66 24 16
1.40317 0.671029 1.74873 54 16 7
1.55872 0.824039 1.89954 120 100 96
1.56993 0.611302 1.73494 116 100 97
0.919409 0.0921005 1.88987 151 143 84
0.919409 0.0921005 1.88987 151 143 84
1.0163 -0.606367 2.09852 144 144 92
1.74537 0.0057501 2.19246 146 158 119
0.762132 0.409553 1.15759 50 50 30
1.1818 0.555396 1.06097 102 102 76
1.08593 -0.298994 1.27047 151 151 98
1.04331 -0.200363 1.84097 66 70 40
1.14472 0.597571 1.84102 106 66 50
1.13251 0.678087 1.91728 65 24 16
1.11892 0.789384 2.07955 95 48 28
1.1501 0.751301 2.00928 48 12 5
1.31634 0.386633 1.64345 12 7 6
1.34369 0.374334 1.59353 78 48 40
1.3454 0.0250402 1.64746 116 110 66
1.40933 0.365519 1.52992 66 42 34
1.40084 0.902056 1.96235 50 17 12
1.40084 0.902056 1.96235 50 17 12
1.43153 0.995681 2.05149 72 34 27
1.40614 0.202978 1.91234 112 112 110
1.5762 0.446273 1.59386 55 20 10
1.57337 0.562346 1.69863 120 96 94
1.48472 -0.300341 2.06341 44 52 16
1.51037 0.143657 2.26215 16 6 4
1.62096 0.964589 2.12617 61 36 34
1.65587 0.898583 2.06912 127 100 98
1.61555 -0.00105411 1.69889 76 80 66
1.55658 -0.356026 2.04405 45 62 26
1.58767 -0.157625 1.9515 157 166 114
1.68279 0.726728 1.93448 44 18 17
1.69008 0.72684 1.94081 131 109 108
1.69008 0.72684 1.94081 131 109 108
1.65845 -0.0130279 1.70279 50 58 47
1.75599 0.426909 1.67892 147 118 114
1.75314 0.365672 1.71131 48 24 7
1.75147 0.333249 1.77841 27 10 5
1.74364 0.00922024 2.24215 58 57 26
1.81323 0.44192 1.78833 84 64 56
1.76678 -0.144642 1.62622 82 88 68
1.76678 -0.144642 1.62622 82 88 68
1.81732 0.394322 1.81211 132 96 88
1.80665 0.229546 1.80422 56 18 5
1.74184 -0.625824 1.84761 52 66 21
1.83892 0.502973 2.18362 50 27 10
1.85758 0.46869 2.26134 150 147 134
1.84702 0.237781 1.78712 178 144 142
1.84702 0.237781 1.78712 178 144 142
1.87778 -0.21204 1.61784 55 66 40
1.91516 -0.0260965 1.9833 33 30 3
1.93366 0.0182886 1.91361 134 100 73
1.93973 -0.0880683 1.98821 146 156 112
1.19097 0.673535 1.06864 56 56 28
1.55627 0.89516 1.95386 120 99 96
0.7657 -0.37439 1.75345 52 54 31
1.41462 0.664243 1.74165 127 97 90
1.38617 0.232974 1.80218 33 38 22
1.46996 0.989657 1.99379 146 112 105
1.59143 0.971208 2.04738 139 117 118
1.7349 0.528515 1.82272 34 12 7
1.82093 0.663115 2.26208 138 134 124
1.82821 -0.179233 1.66911 56 64 44
1.91429 -0.0538717 1.97102 148 160 118
1.89428 -0.472862 2.06552 150 156 106
1.16781 0.545397 1.11782 66 72 45
1.20029 0.410095 1.22068 64 68 36
0.949762 -0.277778 1.8123 60 66 28
1.05502 0.508725 1.84592 156 144 120
1.05519 0.677987 2.03474 152 136 114
1.11121 -0.0172614 1.74005 46 50 22
1.26712 0.510001 1.64304 158 110 97
1.23988 0.0531813 1.6166 54 56 26
1.29661 -0.0833022 1.63859 153 152 100
1.4097 0.508714 1.62413 89 56 52
1.42233 0.457979 1.58169 84 45 26
1.42159 0.360259 1.61552 14 6 3
1.30225 0.170051 1.93152 26 18 4
1.42909 0.670842 1.74524 52 20 16
1.41618 0.147928 1.83354 59 66 54
1.51447 0.0120475 1.4314 88 94 82
1.42182 0.21655 1.88221 54 66 50
1.55439 0.621805 1.74705 38 16 12
1.55237 0.746507 1.83866 46 12 6
1.57748 0.507297 1.66255 114 92 86
1.48405 -0.238972 2.02318 50 57 24
1.46151 0.021214 2.43911 168 155 122
1.72303 0.583165 1.85802 40 17 12
1.72589 0.489052 1.78157 24 4 2
1.73789 0.41926 1.67795 72 31 23
1.72531 0.908003 2.24755 48 22 15
1.75671 0.387508 1.69505 160 138 134
1.75102 0.33137 1.79122 34 10 4
1.77121 0.573114 1.96432 26 6 2
1.77142 0.572757 1.96162 26 6 2
1.83062 0.388903 1.82142 85 54 46
1.94785 -0.296066 1.58809 40 52 25
0.70528 -0.419048 1.69216 106 101 82
1.17834 0.452343 1.17464 160 151 130
1.26431 0.526094 1.57471 66 28 16
1.25242 0.641618 1.78346 16 6 5
1.18431 0.918454 2.12904 134 106 93
1.13089 -0.329086 1.96085 152 152 102
1.2482 0.931855 2.08188 48 16 10
1.47631 0.448006 1.56981 130 84 62
1.41119 0.205428 1.898 92 96 90
1.55968 0.569693 1.69716 34 14 10
1.48632 0.112871 1.77972 77 84 72
1.59792 0.469276 1.61104 34 8 2
1.46053 -0.224889 2.03683 152 160 108
1.70112 0.406307 1.63817 150 129 124
1.61564 -0.137902 1.81407 154 162 114
1.72744 0.48897 1.77238 24 4 0
1.76514 0.582693 1.92379 36 9 4
1.73622 -0.0887423 1.69665 54 61 36
1.76644 -0.144134 1.6243 88 92 72
1.82671 0.283024 1.79043 106 62 47
1.92979 0.0861746 1.80801 120 82 60
1.91257 -0.0261239 1.9764 36 35 4
2.15262 -0.384803 1.51581 160 164 114
1.50491 0.0155224 1.39009 92 100 88
1.69842 -0.0816546 1.66539 85 90 68
1.73143 -0.111271 1.63801 80 86 66
1.82286 0.375881 1.75035 144 107 96
1.81417 0.31343 1.77585 154 110 96
1.82176 0.24724 1.76482 111 63 36
1.82761 0.285202 1.78178 108 62 46
1.83491 0.290154 1.78161 174 132 122
1.80677 -0.177402 1.60212 70 76 52
1.80693 -0.223081 1.63767 73 79 41
1.83651 0.564957 2.27563 146 144 134
1.8364 -0.230503 1.58302 74 77 39
1.83807 0.100312 1.92619 58 54 26
1.91241 0.130555 1.77176 160 130 114
2.03498 -0.268644 1.36269 75 76 49
0.745367 -0.0998603 2.01631 154 150 94
1.0782 0.507507 1.67967 161 150 130
1.36367 0.480926 1.59555 162 111 84
1.36622 0.429797 1.64547 48 12 5
0.990555 -0.694682 2.13799 148 147 94
1.43579 0.397581 1.63088 25 9 4
1.42857 0.80575 1.86034 48 11 5
1.42498 0.976955 1.99194 138 96 82
1.52451 0.449403 1.63554 154 106 82
1.41583 0.147261 1.84198 56 61 50
1.40826 0.207672 1.90846 84 86 77
1.40826 0.207672 1.90846 84 86 77
1.55064 0.746674 1.83771 45 11 4
1.67939 0.392925 1.5923 128 101 91
1.65134 0.944074 2.0986 62 45 38
1.68467 0.728626 1.95869 122 103 100
1.47871 0.0265569 2.37771 164 156 118
1.47871 0.0265569 2.37771 164 156 118
1.4844 0.0159449 2.363 99 72 36
1.70905 0.585885 1.86752 116 98 93
1.71958 0.530866 1.84031 106 84 82
1.73324 0.391125 1.78643 152 130 123
1.68708 -0.129815 1.71743 80 82 42
1.7401 0.367739 1.75836 80 51 28
1.73332 0.896558 2.20578 50 22 14
1.79165 0.31386 1.81118 105 61 38
1.76797 0.780001 2.29717 50 20 9
1.81481 0.293594 1.84334 152 106 90
1.81872 0.247932 1.8244 172 127 114
1.82416 0.18627 1.81961 129 88 67
1.79938 0.670786 2.22566 37 12 4
1.84579 0.16732 1.78865 166 122 101
1.86589 0.32821 2.08518 54 31 22
1.9133 -0.301655 1.6134 58 64 32
1.91777 -0.038863 1.96728 56 56 17
1.97026 -0.0834724 1.99257 80 81 43
1.49257 1.01044 2.0338 106 69 56
1.62106 0.945918 2.06234 130 108 106
2.02672 -0.302618 1.50295 65 68 48
0.612779 -0.493655 1.6728 64 62 34
1.20044 -0.439992 1.99814 54 74 32
1.2708 0.825186 1.93897 117 89 82
1.28859 0.906157 2.00845 130 98 89
1.41673 0.715393 1.78159 122 82 72
1.42746 0.670932 1.74561 52 22 18
1.49185 0.0372432 1.52108 84 94 80
1.67229 0.821989 2.0079 130 110 108
1.67229 0.821989 2.0079 130 110 108
0.615107 -0.503347 1.66962 103 101 82
0.60184 -0.554417 1.69627 157 157 110
0.758116 -0.437746 1.74344 152 152 105
0.656318 -0.0784417 2.11421 72 67 27
1.42081 0.782646 1.83606 128 102 98
1.59032 0.510544 1.66697 27 10 7
1.89137 -0.222032 1.59857 46 56 32
0.618254 -0.502022 1.66407 106 106 88
0.824018 -0.373204 1.76112 48 51 20
